432,439,437,440,451,463,477,484,489,495,499,499,500,502,503,502,498,481,474,474,476,480,489,498,501,507,509,512,520,533,537,537,535,532,526,520,516,515,519,518,512,501,493,492,497,492,491,499,508,508,498,485,476,457,436,420,416,414,419,432,455,465,465,477,490,498,495,501,516,524,538,538,520,500,492,493,499,499,490,480,473,467,459,451,446,443,439,425,420,423,430,436,439,440,440,440,434,425,420,418,420,427,438,439,439,439,439,440,439,437,435,436,439,440,447,458,471,486,498,497,479,462,460,462,468,475,480,481,483,484,486,488,492,495,499,501,508,518,520,521,524,538,551,554,560,569,579,590,600,609,622,640,660,683,699,717,741,761,775,784,798,800,798,782,759,745,760,782,797,794,789,793,783,775,758,730,704,691,679,671,673,679,681,689,694,699,698,690,682,675,681,698,718,735,746,752,742,730,720,720,727,737,748,761,778,794,816,842,869,895,911,925,947,979,1008,1024,1017,1008,1013,1015,1026,1053,1080,1097,1090,1065,1032,995,961,931,905,885,869,852,837,818,799,782,773,763,757,749,737,721,708,699,690,685,683,680,674,671,669,670,671,670,668,667,667,667,667,668,670,672,674,676,678,679,680,682,685,688,691,694,697,699,700,700,699,699,699,699,699,695,694,695,696,697,698,698,699,701,703,706,709,712,715,720,725,730,736,739,745,750,754,760,770,781,796,801,809,819,828,840,859,884,913,944,980,1018,1045,1063,1068,1051,1035,1034,1052,1080,1106,1151,1203,1232,1258,1275,1287,1292,1300,1312,1334,1343,1337,1324,1324,1304,1282,1262,1239,1209,1175,1137,1100,1071,1054,1056,1067,1076,1086,1083,1086,1099,1122,1133,1137,1145,1167,1195,1216,1232,1245,1252,1255,1252,1253,1265,1276,1284,1304,1322,1331,1331,1329,1319,1301,1284,1273,1262,1253,1229,1190,1154,1133,1125,1120,1108,1095,1096,1094,1077,1072,1052,1025,1001,976,955,938,926,919,909,898,882,877,877,878,878,882,897,878,855,830,819,815,810,814,822,839,861,877,875,859,841,838,850,860,870,880,886,881,879,877,881,899,916,924,937,923,905,889,866,853,838,820,810,800,793,787,785,783,779,776,771,767,763,761,759,759,759,759,759,759,760,760,760,759,759,758,758,758,759,759,759,759,758,757,757,757,759,763,769,779,788,789,788,786,784,784,780,774,767,762,759,760,760,760,759,758,758,759,762,768,779,783,802,823,848,858,875,891,908,944,963,985,1006,1026,1067,1126,1196,1263,1323,1369,1403,1425,1441,1448,1455,1462,1479,1496,1498,1493,1501,1518,1541,1568,1592,1611,1630,1630,1627,1621,1620,1624,1624,1620,1618,1617,1620,1622,1615,1592,1566,1544,1536,1528,1521,1518,1523,1542,1558,1558,1548,1540,1547,1556,1557,1540,1511,1478,1457,1452,1438,1426,1421,1415,1411,1409,1407,1403,1396,1381,1359,1331,1319,1319,1311,1299,1290,1286,1281,1297,1315,1320,1322,1330,1338,1349,1370,1399,1433,1465,1481,1491,1491,1481,1479,1487,1493,1491,1483,1478,1467,1470,1473,1478,1465,1450,1440,1440,1451,1468,1478,1479,1469,1466,1463,1459,1444,1433,1430,1417,1411,1407,1394,1375,1370,1377,1360,1333,1287,1238,1195,1155,1123,1096,1069,1038,1010,984,969,958,949,939,930,916,898,881,869,858,849,844,840,837,830,825,818,801,789,784,789,802,830,864,902,948,1004,1060,1107,1133,1135,1147,1181,1219,1243,1249,1259,1286,1323,1362,1392,1399,1399,1398,1398,1399,1391,1375,1360,1329,1321,1321,1339,1367,1389
420,427,432,439,447,454,462,476,480,486,490,493,496,499,501,500,497,487,481,480,480,478,479,481,487,499,507,514,523,538,540,540,540,539,532,528,522,525,538,542,536,522,505,501,504,501,501,509,519,520,516,502,499,489,449,430,420,416,424,442,466,481,489,493,499,503,503,517,531,539,543,537,519,500,493,492,492,489,480,470,466,460,454,447,443,440,436,429,425,428,432,437,440,441,441,441,439,431,424,420,420,429,439,439,441,441,442,442,442,439,436,436,437,437,440,448,458,468,479,478,462,455,455,460,467,474,479,480,481,482,483,486,489,493,496,497,500,506,509,511,517,545,555,561,571,581,594,606,624,632,643,663,689,715,732,747,759,769,780,796,803,804,805,798,781,771,781,801,817,818,810,802,797,779,756,725,700,690,680,675,680,690,698,697,700,707,709,702,692,680,673,674,693,705,715,721,717,710,711,715,719,720,727,740,755,768,793,818,843,866,881,893,919,950,978,985,971,961,972,979,1000,1032,1059,1073,1062,1042,1015,979,939,904,877,866,856,840,824,810,796,777,761,751,746,739,730,717,701,693,688,688,692,696,683,679,675,679,681,680,674,672,670,669,669,669,671,672,674,676,677,679,680,682,685,689,693,697,700,703,704,705,705,705,705,704,703,700,697,697,698,698,698,699,699,700,701,704,706,709,712,715,719,725,732,739,745,749,754,759,766,773,781,791,800,810,819,828,844,870,902,937,972,1002,1027,1040,1034,1011,994,995,1014,1041,1070,1123,1184,1216,1238,1249,1254,1259,1266,1285,1314,1337,1341,1339,1338,1323,1300,1277,1248,1211,1174,1138,1105,1080,1076,1094,1108,1116,1121,1115,1121,1140,1165,1174,1177,1186,1207,1233,1253,1271,1290,1304,1309,1300,1295,1302,1313,1323,1343,1360,1366,1359,1351,1338,1317,1292,1264,1242,1222,1195,1158,1125,1100,1085,1086,1081,1066,1067,1064,1049,1045,1024,1000,976,958,941,928,920,915,907,900,889,880,877,877,874,873,873,858,839,821,817,818,820,827,841,861,877,878,879,860,844,840,851,861,878,888,896,899,899,900,902,916,920,937,942,930,913,897,877,860,841,828,819,809,800,793,790,787,780,777,773,768,763,760,759,759,759,759,759,760,760,760,759,759,759,759,758,759,759,760,760,759,758,758,757,758,760,765,773,783,798,800,799,793,788,785,780,776,770,763,760,759,760,760,759,759,760,762,768,778,789,799,816,823,830,836,845,862,903,922,940,960,983,1012,1051,1106,1175,1244,1309,1364,1407,1438,1458,1467,1461,1459,1461,1475,1480,1482,1504,1525,1557,1588,1616,1637,1652,1659,1655,1642,1638,1640,1640,1636,1623,1617,1618,1619,1609,1597,1583,1561,1551,1548,1543,1532,1539,1557,1570,1562,1554,1549,1553,1559,1558,1557,1537,1509,1485,1467,1447,1421,1399,1381,1366,1359,1356,1358,1360,1360,1341,1322,1315,1313,1308,1302,1298,1299,1294,1300,1312,1319,1318,1323,1332,1340,1363,1406,1438,1459,1478,1492,1499,1495,1492,1495,1499,1494,1480,1474,1473,1481,1491,1489,1474,1450,1444,1453,1474,1485,1494,1500,1499,1497,1491,1485,1468,1450,1454,1451,1449,1440,1424,1404,1393,1385,1358,1321,1278,1234,1200,1167,1132,1099,1078,1056,1032,1010,988,973,965,956,940,922,903,890,878,862,854,856,854,856,843,836,821,809,799,791,794,810,840,877,919,967,1027,1088,1140,1172,1178,1189,1226,1269,1300,1300,1295,1308,1334,1370,1396,1396,1402,1406,1410,1419,1416,1400,1359,1341,1330,1330,1340,1360,1381
415,420,427,439,445,449,454,461,469,479,485,487,492,496,499,499,498,496,498,498,490,479,475,476,481,498,509,520,537,547,554,558,553,548,542,547,547,553,569,572,561,544,529,520,519,518,518,520,528,530,528,519,510,494,469,443,432,423,435,458,480,497,500,500,504,511,518,528,539,542,538,523,511,499,493,489,485,479,468,460,459,453,448,443,440,439,437,434,432,433,436,439,441,441,442,442,440,434,428,425,425,431,438,440,441,443,444,444,444,443,440,440,439,439,440,445,450,456,460,460,455,453,456,460,467,473,478,479,480,480,481,484,488,492,496,499,500,503,506,511,540,559,574,587,600,611,624,639,659,667,675,695,719,742,757,758,758,758,762,773,784,790,800,804,799,797,801,817,828,828,819,802,788,767,742,714,698,699,696,682,688,699,703,700,705,714,719,712,700,686,678,680,689,683,698,699,700,701,717,720,720,722,736,735,740,746,767,793,818,840,859,877,899,921,941,941,924,917,933,950,981,1015,1038,1042,1032,1018,1000,971,931,891,862,845,836,818,797,789,778,761,750,742,738,730,720,709,699,691,689,693,703,715,701,688,680,689,698,697,683,679,675,672,671,670,671,673,674,676,677,678,679,681,684,689,694,699,702,706,709,711,712,711,709,707,705,702,699,698,699,699,699,699,699,699,701,702,705,707,709,712,715,720,730,739,745,750,755,759,765,772,779,789,799,805,812,821,838,861,891,920,950,979,1002,1014,998,975,957,960,980,1033,1062,1096,1129,1190,1211,1218,1222,1231,1240,1264,1295,1323,1340,1345,1344,1330,1301,1272,1238,1199,1158,1125,1102,1090,1106,1134,1156,1163,1161,1153,1157,1180,1209,1224,1230,1238,1251,1263,1281,1304,1328,1344,1350,1337,1328,1324,1338,1357,1378,1396,1397,1383,1373,1359,1339,1313,1279,1246,1215,1189,1160,1124,1089,1062,1076,1060,1043,1040,1036,1027,1020,1003,982,962,947,937,921,915,911,905,896,881,878,878,876,867,857,843,831,821,817,821,827,837,843,858,876,884,883,879,861,851,850,859,867,879,891,899,904,912,918,920,927,931,940,943,937,920,900,882,868,851,839,829,818,807,800,794,788,782,779,774,769,763,760,759,759,760,759,759,759,759,760,760,759,759,759,760,760,761,761,761,760,759,759,759,758,760,767,779,797,808,812,813,802,793,787,782,779,773,766,760,760,760,760,760,760,761,765,772,783,804,824,845,849,841,835,857,871,887,910,925,945,976,1011,1050,1097,1162,1232,1300,1364,1415,1454,1481,1495,1482,1471,1463,1460,1468,1477,1498,1532,1568,1599,1628,1651,1665,1678,1670,1659,1654,1658,1662,1658,1642,1623,1616,1612,1604,1599,1590,1578,1568,1564,1560,1557,1560,1570,1579,1577,1563,1559,1560,1563,1564,1562,1547,1520,1493,1468,1440,1410,1384,1363,1343,1332,1323,1322,1326,1333,1322,1319,1313,1310,1306,1304,1302,1302,1299,1300,1302,1308,1311,1314,1318,1322,1340,1366,1387,1437,1455,1478,1497,1500,1500,1500,1503,1498,1481,1476,1482,1497,1502,1499,1484,1464,1460,1483,1506,1512,1510,1518,1519,1519,1517,1508,1494,1476,1474,1479,1482,1469,1451,1431,1412,1390,1358,1322,1296,1264,1238,1209,1174,1139,1113,1090,1066,1043,1027,1013,997,972,955,938,922,906,891,875,863,870,863,866,857,841,830,819,808,800,801,824,854,888,928,975,1034,1095,1150,1181,1199,1212,1249,1296,1331,1335,1322,1321,1339,1363,1383,1397,1399,1399,1401,1413,1418,1401,1379,1358,1342,1340,1344,1359,1377
420,417,420,429,438,444,449,454,460,472,479,480,486,491,495,498,498,500,503,502,498,481,476,479,486,499,509,521,538,549,559,563,560,559,559,562,567,578,596,597,584,564,547,539,534,533,530,531,540,540,535,525,512,484,471,470,451,447,455,471,489,490,499,500,505,512,519,528,539,539,528,520,510,500,494,487,480,470,460,454,452,447,442,440,439,439,440,439,437,437,438,440,440,441,441,441,439,436,432,430,430,434,438,440,442,444,446,447,449,450,449,448,446,444,443,444,446,448,450,451,451,454,459,463,469,474,477,478,479,479,480,484,489,493,496,499,502,506,521,537,557,579,599,617,634,648,661,678,695,703,713,729,741,758,758,745,731,726,725,735,749,762,782,796,798,799,807,820,830,830,818,793,774,753,727,716,703,716,716,701,699,705,710,709,710,719,728,722,710,695,685,689,699,704,703,708,717,721,736,739,739,740,749,756,758,757,753,769,793,818,839,859,877,890,903,901,884,884,906,937,977,1012,1019,1007,994,989,981,959,925,885,855,835,815,789,767,762,757,743,737,729,721,718,714,701,694,690,692,703,720,727,716,700,692,701,708,706,698,687,679,675,672,671,672,673,674,676,677,678,678,680,683,688,694,700,704,708,715,720,720,719,715,712,708,704,701,700,700,700,700,699,699,700,701,702,704,706,708,711,714,720,729,739,746,750,756,760,767,774,780,787,794,800,808,819,830,845,869,895,919,946,967,974,957,939,923,929,976,1004,1038,1075,1100,1117,1124,1179,1192,1210,1231,1256,1285,1315,1333,1340,1337,1316,1283,1248,1214,1186,1152,1132,1125,1128,1148,1178,1206,1215,1209,1198,1199,1226,1262,1284,1289,1287,1289,1288,1304,1330,1354,1366,1377,1364,1355,1344,1359,1381,1405,1424,1420,1403,1391,1378,1358,1329,1295,1263,1232,1202,1172,1140,1102,1081,1069,1046,1034,1021,1011,1005,1004,996,977,958,941,931,920,913,907,898,882,877,878,879,879,862,841,822,815,815,821,832,841,852,858,859,862,879,883,880,869,861,859,860,870,880,891,896,901,918,924,931,935,939,942,939,930,919,899,879,862,855,850,839,823,813,807,799,789,781,779,776,772,766,761,759,759,759,758,758,758,759,761,760,759,758,760,763,764,764,763,763,761,761,760,759,759,760,767,780,799,814,823,831,818,800,790,784,780,776,770,765,763,763,762,762,762,765,772,782,800,826,846,876,884,863,844,860,878,896,911,923,946,976,1012,1057,1098,1162,1230,1297,1359,1407,1453,1486,1492,1497,1483,1479,1477,1474,1480,1504,1542,1576,1603,1632,1659,1678,1680,1670,1668,1662,1673,1686,1680,1663,1642,1623,1611,1600,1597,1593,1586,1579,1574,1571,1570,1572,1576,1580,1582,1578,1570,1567,1568,1569,1562,1545,1516,1485,1455,1429,1405,1391,1379,1359,1334,1322,1315,1319,1318,1317,1316,1311,1308,1306,1304,1304,1304,1304,1304,1306,1306,1309,1311,1313,1315,1323,1342,1363,1380,1424,1449,1477,1497,1504,1505,1504,1499,1486,1480,1496,1500,1504,1502,1492,1478,1486,1512,1534,1536,1517,1521,1525,1527,1526,1520,1510,1497,1491,1499,1502,1495,1476,1457,1434,1405,1372,1345,1331,1316,1298,1269,1232,1195,1164,1135,1106,1080,1066,1051,1028,996,969,956,945,926,903,882,881,893,882,876,860,847,839,829,819,810,812,833,863,895,931,972,1029,1093,1155,1200,1217,1222,1246,1287,1323,1339,1333,1331,1340,1358,1371,1380,1380,1381,1388,1417,1423,1417,1395,1375,1360,1357,1349,1357,1369
436,422,419,419,422,436,444,451,459,466,470,470,479,486,491,497,500,504,508,507,500,488,480,482,489,499,507,519,531,540,552,559,559,560,563,568,575,582,599,604,597,583,564,559,552,551,542,543,557,550,540,524,503,475,471,476,479,471,461,479,498,498,499,500,504,509,514,521,537,540,539,528,519,508,499,488,479,466,459,452,448,443,440,439,439,440,440,440,439,439,439,439,440,440,441,441,440,438,435,434,434,437,439,441,443,446,448,451,455,459,460,459,453,450,447,446,446,445,446,447,449,453,460,466,472,476,478,478,478,479,480,485,491,496,497,500,505,521,536,550,570,597,620,641,661,678,694,713,725,737,747,757,753,741,733,713,693,690,692,699,713,730,753,768,770,781,798,817,828,829,819,797,771,753,735,721,721,737,731,717,707,712,719,719,715,721,738,738,723,708,699,695,697,700,707,721,737,739,748,754,758,759,763,777,780,777,764,760,774,798,818,836,853,858,866,867,862,878,903,934,970,997,996,975,956,953,955,940,913,877,845,821,795,767,753,747,740,728,720,714,705,700,700,699,695,693,702,722,743,741,722,708,703,717,719,715,704,690,681,676,673,672,673,674,675,676,677,677,678,679,682,686,692,699,703,710,720,737,733,728,721,719,713,708,705,703,702,702,701,701,701,701,702,704,706,708,710,712,715,720,729,739,744,749,759,765,773,779,782,785,788,792,799,809,820,835,846,867,887,911,927,929,914,902,892,923,953,985,1020,1050,1065,1070,1080,1101,1160,1188,1215,1240,1266,1294,1314,1318,1310,1288,1257,1224,1197,1179,1161,1155,1164,1178,1197,1224,1250,1266,1262,1248,1251,1281,1319,1344,1345,1331,1319,1314,1329,1352,1366,1382,1397,1384,1376,1364,1380,1403,1426,1441,1438,1419,1400,1383,1365,1336,1311,1284,1254,1220,1179,1141,1108,1108,1083,1059,1036,1011,989,978,990,980,963,950,939,928,919,911,902,889,878,875,879,880,880,868,843,821,813,820,836,843,851,859,860,860,862,880,888,887,881,877,868,862,877,889,899,901,905,915,922,938,940,944,944,940,932,918,899,882,872,868,869,858,839,823,817,801,790,780,780,780,779,771,765,761,759,758,757,757,757,760,764,768,761,760,762,766,768,768,767,765,764,762,761,760,760,761,768,780,800,820,837,839,828,803,791,785,782,779,774,770,768,767,766,765,766,770,780,796,811,830,856,894,903,863,856,869,886,905,925,939,958,982,1015,1059,1107,1169,1236,1300,1356,1402,1446,1479,1498,1503,1499,1492,1485,1479,1483,1509,1543,1575,1601,1631,1658,1677,1672,1661,1677,1679,1684,1699,1697,1678,1659,1640,1622,1608,1600,1595,1590,1584,1579,1576,1576,1579,1580,1580,1587,1580,1574,1572,1574,1576,1563,1539,1509,1476,1447,1431,1418,1410,1403,1382,1352,1334,1320,1329,1337,1330,1319,1312,1307,1305,1305,1306,1307,1309,1312,1319,1320,1320,1319,1316,1321,1329,1342,1358,1366,1378,1416,1447,1477,1497,1504,1503,1499,1491,1488,1496,1501,1505,1502,1497,1480,1496,1511,1521,1529,1523,1523,1525,1527,1528,1524,1519,1511,1512,1519,1522,1520,1505,1485,1460,1430,1399,1380,1380,1377,1365,1337,1298,1258,1222,1186,1150,1120,1101,1076,1044,1011,991,977,964,943,913,894,899,906,897,880,863,852,847,839,829,819,820,844,875,908,938,972,1026,1091,1155,1208,1235,1238,1242,1272,1306,1327,1329,1329,1339,1349,1359,1366,1371,1380,1391,1403,1419,1419,1405,1387,1372,1364,1357,1357,1363
450,439,429,420,417,421,438,445,452,459,460,460,468,480,488,499,505,510,514,513,508,499,490,488,491,496,501,514,520,530,538,540,542,550,559,568,579,588,600,604,602,598,584,585,580,575,562,560,564,559,547,534,511,482,474,479,478,460,477,481,498,499,500,501,503,507,510,515,523,539,540,532,521,514,500,486,478,461,456,451,447,443,441,440,440,440,440,440,440,439,439,439,439,440,441,441,440,439,438,437,437,438,440,442,444,447,451,455,460,468,469,467,461,460,453,451,448,446,445,445,447,452,460,468,476,479,480,479,479,480,483,489,496,499,500,509,519,529,541,555,576,608,636,659,679,698,717,734,747,759,764,765,753,727,703,681,664,670,679,683,698,706,727,740,743,758,780,801,818,823,819,800,778,758,740,733,742,757,745,724,714,720,727,727,720,727,740,743,735,712,700,694,693,694,700,716,730,743,751,760,767,773,779,790,799,798,784,774,779,790,799,810,828,829,841,852,863,887,914,937,960,976,968,942,919,916,921,913,890,862,838,816,788,761,749,743,736,720,713,708,700,699,699,700,699,703,721,743,758,756,733,719,719,721,723,719,706,691,681,676,674,673,674,675,676,676,677,677,677,678,680,683,689,695,700,709,721,739,740,740,738,730,720,713,710,707,706,705,704,703,703,704,705,708,711,712,714,715,716,719,725,733,739,741,757,766,778,779,779,779,779,779,782,797,809,820,830,843,860,878,887,886,874,873,883,911,941,971,998,1015,1019,1022,1041,1068,1099,1160,1190,1216,1239,1262,1279,1277,1269,1258,1241,1222,1206,1197,1192,1195,1212,1230,1249,1274,1298,1315,1312,1300,1309,1339,1375,1393,1384,1364,1344,1338,1342,1353,1363,1386,1402,1399,1390,1383,1399,1423,1440,1446,1438,1419,1400,1381,1362,1336,1313,1286,1256,1221,1179,1144,1116,1104,1077,1050,1025,1002,974,960,964,960,951,940,929,920,913,906,898,881,872,872,879,879,883,876,854,828,814,826,837,847,854,858,860,868,880,897,901,900,898,890,879,879,889,900,911,918,915,920,929,940,946,950,949,945,938,919,902,898,892,891,894,881,860,840,821,807,799,790,797,800,798,782,771,763,759,757,757,757,760,764,772,779,780,768,769,772,773,772,770,768,765,764,762,761,761,763,769,780,798,811,822,829,817,800,790,785,782,780,777,774,772,771,770,768,768,771,780,796,812,829,860,919,908,880,868,881,901,926,951,962,979,1002,1034,1074,1121,1182,1248,1307,1359,1400,1439,1467,1491,1500,1502,1499,1488,1480,1489,1507,1534,1564,1593,1621,1644,1660,1659,1656,1668,1685,1700,1708,1702,1684,1671,1655,1636,1619,1607,1599,1592,1587,1582,1580,1580,1584,1587,1590,1592,1586,1580,1580,1582,1591,1583,1558,1524,1486,1456,1437,1421,1413,1403,1392,1353,1329,1325,1338,1343,1338,1320,1311,1307,1305,1306,1308,1311,1314,1320,1331,1338,1331,1325,1318,1328,1336,1345,1354,1360,1371,1386,1418,1455,1483,1499,1500,1498,1494,1494,1503,1517,1512,1500,1495,1488,1494,1499,1503,1517,1519,1519,1520,1523,1525,1525,1524,1522,1532,1541,1549,1550,1539,1520,1496,1465,1432,1414,1422,1430,1426,1402,1364,1321,1280,1237,1195,1159,1130,1094,1053,1025,1021,1012,992,960,927,904,917,918,902,888,876,862,859,850,838,821,820,845,878,915,948,979,1033,1100,1167,1222,1247,1246,1242,1264,1291,1315,1319,1320,1330,1340,1352,1361,1378,1380,1391,1402,1419,1420,1412,1397,1381,1371,1363,1360,1361
462,458,449,440,431,430,438,439,443,450,454,456,461,478,487,499,508,514,519,519,515,507,499,494,495,496,499,506,512,519,521,527,533,540,550,561,577,586,598,601,600,600,599,600,599,590,579,571,566,557,539,522,501,474,468,479,471,460,478,479,489,494,499,502,503,505,510,515,521,539,543,539,530,519,500,481,474,466,460,454,449,446,443,442,441,440,440,440,440,439,439,439,439,440,441,442,442,441,440,439,439,438,439,440,442,448,455,460,468,479,480,480,479,476,463,459,453,448,446,445,447,452,460,470,479,481,481,482,482,483,487,493,499,501,505,511,520,537,549,563,587,617,642,666,682,700,720,741,759,766,762,751,727,694,668,659,660,675,697,714,729,738,748,742,738,741,762,783,803,817,813,800,779,760,747,742,757,761,754,737,720,729,739,739,732,734,738,737,721,702,695,692,689,689,692,701,717,729,749,759,768,779,784,789,799,804,798,791,795,795,794,802,822,837,848,860,877,896,916,926,941,948,936,910,884,875,879,876,862,842,826,805,779,759,746,736,722,714,710,708,706,705,706,707,710,721,743,757,763,759,739,720,720,721,723,718,701,682,676,675,674,675,676,676,677,677,677,677,677,677,678,680,686,693,700,708,720,738,744,747,746,739,729,721,719,714,712,709,708,707,707,708,711,714,720,720,720,719,718,718,720,726,731,733,741,750,759,761,760,761,766,768,771,781,797,809,819,829,839,848,850,848,848,859,879,910,937,958,974,977,975,985,1010,1039,1069,1096,1119,1180,1200,1220,1233,1232,1230,1239,1245,1249,1248,1245,1241,1242,1257,1279,1302,1325,1346,1363,1362,1354,1363,1388,1415,1419,1408,1385,1362,1351,1349,1353,1361,1381,1399,1402,1399,1399,1409,1421,1437,1437,1423,1405,1387,1362,1332,1305,1283,1259,1233,1203,1171,1152,1131,1100,1062,1032,1007,985,962,943,939,939,938,929,920,912,906,900,892,879,866,860,870,879,878,863,845,827,816,835,845,853,860,860,861,877,896,912,918,914,908,897,881,887,899,910,919,923,920,929,939,948,953,956,954,949,939,923,919,918,916,909,910,898,878,855,830,811,800,795,801,816,819,801,782,770,762,759,758,760,765,770,779,791,799,800,793,780,779,776,773,769,767,765,764,763,763,766,771,780,791,800,811,816,803,795,789,784,781,779,778,777,776,776,775,772,769,769,773,784,811,838,889,905,900,886,882,896,917,946,974,990,1007,1032,1064,1099,1143,1200,1260,1319,1372,1408,1442,1473,1497,1500,1503,1500,1492,1487,1481,1501,1528,1557,1588,1616,1637,1649,1647,1642,1658,1688,1715,1720,1718,1701,1681,1654,1633,1619,1608,1599,1593,1588,1586,1585,1588,1591,1595,1599,1599,1595,1592,1593,1599,1599,1584,1568,1527,1483,1449,1425,1407,1403,1394,1377,1347,1332,1332,1339,1339,1329,1317,1310,1306,1306,1307,1311,1315,1320,1331,1339,1342,1339,1331,1319,1321,1338,1350,1359,1368,1384,1411,1446,1478,1484,1499,1501,1500,1499,1501,1517,1520,1518,1503,1499,1493,1492,1494,1496,1501,1506,1510,1514,1519,1523,1524,1532,1541,1557,1568,1578,1580,1574,1559,1537,1508,1471,1444,1449,1468,1475,1458,1421,1376,1327,1279,1232,1190,1153,1111,1078,1067,1066,1048,1018,978,941,923,936,930,911,896,888,879,870,859,848,830,820,840,874,914,951,995,1054,1122,1187,1237,1258,1258,1259,1276,1286,1300,1309,1319,1330,1342,1361,1389,1392,1391,1400,1416,1428,1427,1418,1401,1389,1379,1371,1365,1363
479,478,471,466,459,456,452,442,441,451,455,459,466,472,481,496,506,514,520,522,519,513,506,500,499,497,497,500,504,510,514,520,529,533,540,549,561,570,582,597,600,603,604,604,599,590,580,569,557,540,523,510,495,475,460,477,470,469,478,479,478,480,493,499,500,503,510,519,525,539,546,545,539,528,509,490,481,478,469,460,454,450,447,444,442,441,440,440,439,439,439,439,440,441,442,443,443,443,442,440,439,438,438,438,440,449,459,466,474,481,490,491,491,489,479,469,460,453,448,446,448,452,460,470,479,481,482,483,485,487,491,496,499,503,507,513,522,541,558,573,591,619,640,659,674,692,712,737,754,755,737,712,684,653,634,644,666,694,727,758,778,781,776,759,749,740,751,768,791,801,804,798,781,768,760,758,758,761,761,744,721,737,743,745,741,739,733,721,714,705,700,695,690,688,689,694,703,720,733,741,760,770,778,780,793,800,809,816,812,808,802,817,836,848,859,867,878,883,901,914,919,917,903,878,853,843,841,840,836,823,811,787,764,749,736,722,715,711,710,711,715,715,719,720,723,739,758,763,760,752,737,721,721,722,719,711,697,680,675,675,676,677,678,678,678,678,678,678,678,678,678,680,685,691,699,706,716,730,742,749,749,744,740,738,730,721,719,715,713,713,713,714,719,723,737,733,727,723,720,719,719,722,725,727,731,736,741,746,750,754,759,760,763,771,782,796,802,814,819,820,820,822,837,851,874,906,926,938,944,942,943,959,984,1012,1037,1059,1075,1091,1151,1171,1189,1203,1220,1242,1262,1284,1297,1300,1295,1291,1299,1323,1351,1376,1398,1414,1413,1405,1411,1425,1442,1434,1419,1402,1377,1359,1353,1355,1360,1376,1390,1396,1399,1403,1410,1412,1415,1414,1410,1395,1369,1333,1295,1263,1239,1217,1197,1181,1169,1156,1131,1094,1051,1015,990,968,949,935,921,920,924,920,913,905,900,894,887,876,860,855,860,866,861,848,831,818,821,838,851,863,877,876,873,882,901,919,921,920,913,900,890,898,909,919,926,930,932,939,947,955,960,961,959,954,946,939,933,928,921,920,917,899,880,859,833,815,804,801,809,823,837,822,800,782,770,763,761,763,767,773,782,799,811,817,804,799,785,779,774,770,767,766,765,765,765,768,773,780,788,794,799,801,799,793,788,784,781,780,779,780,780,780,779,775,771,770,773,787,821,879,892,900,900,891,890,902,925,958,993,1019,1042,1070,1102,1132,1172,1222,1277,1329,1377,1415,1453,1485,1502,1507,1510,1509,1501,1499,1498,1507,1523,1548,1575,1600,1621,1637,1638,1633,1647,1681,1717,1728,1726,1715,1690,1657,1627,1616,1609,1600,1594,1592,1590,1591,1594,1597,1600,1602,1602,1599,1598,1600,1605,1603,1587,1554,1509,1464,1427,1399,1379,1372,1364,1355,1338,1339,1341,1345,1339,1323,1314,1309,1306,1306,1309,1313,1319,1325,1339,1341,1340,1341,1338,1321,1323,1339,1357,1369,1385,1413,1449,1485,1511,1520,1507,1506,1505,1505,1509,1519,1523,1524,1518,1510,1499,1494,1493,1496,1497,1500,1505,1510,1515,1519,1520,1536,1556,1577,1593,1607,1613,1612,1600,1577,1548,1512,1479,1477,1496,1513,1502,1465,1415,1361,1306,1254,1209,1168,1126,1105,1114,1109,1082,1040,993,957,941,944,938,918,903,899,890,878,862,855,830,820,838,872,916,961,1014,1076,1145,1208,1247,1252,1260,1267,1275,1281,1299,1317,1329,1342,1381,1397,1401,1401,1400,1410,1424,1438,1433,1421,1409,1400,1389,1380,1374,1369
485,487,484,482,480,479,477,467,461,467,461,458,460,464,475,483,499,512,519,522,520,516,513,510,506,500,497,496,500,504,510,519,520,525,531,539,548,554,563,580,597,604,604,600,591,580,570,557,539,522,510,499,482,473,467,467,478,479,481,481,479,477,480,492,496,499,504,513,521,539,547,549,546,538,520,503,498,490,479,467,460,455,451,447,444,441,440,439,439,439,439,439,441,442,443,445,445,445,443,440,439,438,438,439,442,449,460,469,479,488,499,500,500,499,490,480,469,460,453,449,449,453,459,470,479,481,482,485,487,490,493,499,500,503,510,519,531,549,564,579,596,617,634,650,666,682,702,723,737,725,695,665,643,623,620,639,670,708,751,793,823,829,817,795,778,759,753,762,780,793,800,800,791,781,777,768,762,777,776,752,731,739,748,754,758,750,738,725,720,719,717,707,698,692,693,700,716,727,739,747,759,760,769,782,799,809,821,836,831,826,820,827,839,847,854,859,861,863,878,886,887,882,871,852,834,821,810,808,809,800,785,764,749,736,722,717,714,713,713,714,716,722,737,739,741,751,758,759,751,738,723,719,719,718,711,700,689,679,676,676,678,679,680,680,680,679,679,679,679,679,679,680,684,689,694,700,708,721,737,746,748,745,744,744,739,731,725,720,720,719,719,720,730,739,744,739,732,725,721,720,719,721,722,724,726,730,734,739,744,749,754,756,760,765,772,779,782,791,797,801,809,819,831,845,872,898,909,910,911,915,922,941,963,985,1005,1025,1044,1070,1105,1139,1170,1204,1237,1266,1291,1316,1335,1344,1342,1334,1339,1364,1395,1422,1443,1455,1455,1448,1452,1454,1457,1444,1421,1400,1380,1364,1360,1359,1357,1362,1378,1387,1394,1400,1403,1400,1397,1397,1394,1376,1345,1305,1264,1226,1196,1173,1155,1152,1153,1138,1111,1078,1039,1004,980,959,940,923,915,916,919,915,909,900,893,887,878,862,855,852,854,858,854,840,821,819,828,842,860,878,890,892,887,894,910,921,924,924,918,901,894,901,917,924,931,937,939,943,951,959,962,963,960,955,948,944,939,932,925,917,902,884,870,856,837,820,814,818,820,831,840,837,819,800,782,771,766,766,770,777,791,803,814,820,819,812,798,780,773,769,767,766,766,766,767,770,774,780,786,790,792,793,793,791,787,785,783,782,783,783,783,783,780,776,774,775,780,833,871,895,904,917,917,902,901,917,940,972,1011,1047,1078,1110,1142,1170,1203,1246,1294,1336,1373,1412,1451,1485,1503,1513,1521,1526,1518,1503,1508,1518,1527,1540,1561,1581,1600,1617,1620,1621,1642,1678,1713,1726,1720,1704,1682,1657,1636,1621,1618,1608,1601,1599,1595,1599,1601,1603,1602,1600,1599,1596,1595,1597,1598,1589,1560,1518,1475,1434,1399,1375,1361,1354,1347,1343,1343,1351,1358,1359,1350,1336,1320,1313,1308,1307,1309,1313,1317,1320,1332,1339,1342,1343,1339,1329,1329,1341,1361,1382,1411,1448,1489,1525,1543,1541,1531,1521,1511,1510,1513,1519,1523,1525,1523,1518,1501,1495,1495,1499,1498,1500,1504,1509,1512,1514,1515,1524,1551,1580,1608,1634,1646,1651,1642,1615,1582,1547,1513,1494,1512,1536,1532,1496,1440,1378,1319,1264,1217,1177,1146,1138,1150,1135,1099,1050,1001,968,958,952,937,922,918,910,898,881,870,858,836,820,838,871,918,970,1029,1091,1155,1211,1239,1247,1265,1278,1282,1287,1302,1320,1338,1378,1397,1401,1405,1408,1412,1423,1437,1444,1440,1430,1421,1416,1403,1397,1387,1380
478,486,487,488,489,492,491,486,481,483,476,462,460,460,477,484,499,511,520,522,521,520,519,519,514,506,500,497,496,500,504,511,514,519,525,532,539,544,550,562,580,597,599,597,582,570,558,542,523,512,506,499,487,480,479,478,484,486,485,483,479,477,480,492,495,497,500,508,519,536,546,550,548,540,530,519,510,498,480,469,463,459,454,450,445,442,440,439,439,439,440,441,442,444,445,447,447,447,444,441,439,438,438,439,442,449,460,469,480,490,500,506,508,507,500,490,479,469,460,454,453,455,460,470,478,480,482,485,489,492,498,499,501,504,511,520,533,542,559,571,582,600,619,639,658,678,698,712,713,686,651,627,619,617,624,649,681,717,761,811,854,868,854,829,804,782,766,777,789,800,816,818,810,799,789,779,779,788,779,758,740,740,751,760,768,759,742,733,738,740,737,724,712,702,700,706,719,727,740,749,759,770,779,796,810,820,831,840,840,839,834,832,833,838,840,846,850,852,858,853,850,845,842,837,821,806,786,781,784,777,760,743,735,721,718,719,720,719,719,719,722,739,757,761,760,759,751,742,736,721,710,707,701,701,698,688,680,677,676,678,679,681,681,681,681,680,680,679,679,679,680,680,682,686,690,694,700,711,723,739,743,741,742,745,743,739,732,730,728,725,725,729,739,745,745,739,731,724,721,720,720,720,721,722,724,727,731,735,740,745,751,755,759,763,766,770,772,776,790,799,808,819,832,850,875,886,883,882,889,900,918,938,957,970,985,1011,1046,1088,1133,1179,1225,1233,1272,1302,1322,1341,1360,1375,1378,1373,1376,1397,1425,1450,1463,1474,1481,1481,1487,1481,1470,1449,1423,1403,1394,1389,1378,1367,1360,1363,1374,1380,1391,1399,1401,1399,1384,1379,1368,1344,1311,1274,1236,1197,1164,1137,1118,1119,1121,1108,1084,1057,1026,998,976,959,946,936,920,917,916,911,905,899,888,879,868,859,855,852,847,841,847,838,820,827,838,852,870,885,899,900,897,901,918,922,925,925,919,907,900,905,914,920,930,939,941,940,948,959,960,959,956,949,940,937,931,924,916,900,882,869,856,842,832,824,820,826,831,839,843,839,828,817,801,783,773,769,770,773,781,797,810,819,824,818,800,780,771,768,767,767,767,768,769,771,775,779,783,786,787,788,788,788,787,786,785,786,786,787,786,784,780,777,776,779,801,833,871,901,919,932,937,922,919,935,960,996,1039,1077,1111,1144,1175,1202,1233,1270,1310,1344,1374,1408,1444,1475,1497,1515,1534,1553,1546,1526,1527,1536,1541,1545,1560,1572,1581,1597,1607,1619,1639,1670,1700,1718,1715,1700,1679,1654,1637,1631,1628,1621,1618,1609,1601,1612,1619,1611,1602,1591,1588,1580,1578,1576,1568,1551,1517,1477,1438,1402,1375,1362,1355,1351,1348,1356,1360,1370,1378,1371,1359,1343,1329,1319,1312,1309,1310,1313,1317,1320,1330,1340,1346,1349,1346,1340,1340,1353,1374,1401,1437,1479,1520,1551,1556,1557,1543,1537,1528,1514,1515,1520,1523,1524,1522,1519,1507,1500,1500,1503,1501,1505,1509,1512,1514,1514,1514,1521,1547,1579,1615,1651,1669,1685,1679,1651,1614,1579,1548,1526,1530,1549,1543,1508,1451,1389,1333,1282,1239,1204,1178,1171,1171,1140,1097,1051,1015,989,975,959,942,938,930,918,900,887,878,862,839,820,837,870,915,968,1026,1085,1141,1189,1222,1236,1275,1300,1306,1303,1316,1329,1359,1380,1398,1401,1403,1409,1420,1438,1439,1445,1444,1439,1432,1427,1419,1410,1402,1396
463,477,479,483,489,496,500,499,496,499,491,480,475,461,470,480,498,508,519,522,522,521,520,521,519,512,505,500,495,498,500,505,509,514,520,529,537,540,543,551,563,581,594,583,571,557,543,537,521,510,505,500,494,489,489,490,492,491,489,485,482,480,486,499,505,509,500,505,512,522,539,549,552,549,540,531,518,500,480,469,463,460,456,451,447,442,440,439,439,440,442,443,444,446,448,450,451,450,447,443,440,438,437,438,440,448,459,466,479,490,500,509,514,513,508,500,490,479,468,460,459,460,466,475,479,480,482,486,491,497,499,500,502,506,511,520,536,542,551,558,562,579,599,620,640,661,682,694,682,650,620,609,616,630,650,677,706,733,766,812,862,893,883,857,827,804,794,805,809,814,835,841,836,819,798,781,789,798,782,761,745,740,757,771,779,770,756,743,756,760,757,743,732,715,708,709,714,721,736,746,753,762,778,797,818,829,839,844,843,843,839,831,821,819,821,830,838,839,839,832,822,819,820,818,806,792,776,763,766,758,741,728,720,717,719,723,726,726,728,730,740,760,777,779,772,757,741,729,720,708,700,699,693,689,686,680,678,677,678,679,681,682,683,683,682,682,681,680,680,679,680,680,681,683,687,692,699,707,718,731,738,733,737,739,738,736,738,739,735,727,726,729,738,744,740,731,725,720,719,719,720,721,721,722,724,726,730,735,739,744,749,755,759,762,764,766,768,779,788,799,809,819,828,842,861,873,863,866,880,899,920,939,957,974,999,1034,1079,1127,1174,1221,1268,1313,1313,1340,1353,1364,1381,1399,1410,1410,1408,1419,1431,1442,1458,1474,1488,1495,1502,1497,1480,1460,1438,1425,1420,1420,1402,1382,1370,1370,1379,1384,1391,1398,1400,1399,1383,1366,1343,1311,1272,1238,1204,1169,1139,1113,1094,1087,1084,1077,1058,1035,1011,986,963,953,945,939,924,919,914,907,900,892,880,870,860,857,860,859,850,840,840,839,830,838,841,857,877,888,898,901,902,906,916,920,928,929,926,920,914,914,915,919,926,933,939,936,939,946,949,949,947,937,921,913,910,905,893,880,868,859,843,835,832,831,831,833,834,836,837,830,820,819,818,798,781,773,769,769,773,782,798,810,818,811,799,780,772,769,767,768,768,769,770,772,774,777,780,782,783,783,785,786,787,787,788,789,791,791,790,785,780,777,779,786,801,832,871,907,930,944,956,941,932,945,978,1022,1064,1102,1136,1169,1201,1230,1262,1296,1332,1361,1384,1407,1434,1460,1485,1515,1550,1577,1574,1556,1555,1562,1572,1576,1584,1580,1575,1581,1599,1617,1634,1657,1680,1700,1707,1700,1685,1664,1644,1647,1642,1633,1626,1619,1614,1619,1613,1617,1598,1576,1572,1555,1546,1538,1527,1508,1475,1439,1406,1378,1362,1359,1360,1361,1360,1368,1381,1396,1398,1383,1371,1357,1339,1323,1314,1310,1310,1313,1319,1324,1338,1346,1353,1359,1360,1359,1361,1373,1395,1421,1452,1490,1528,1557,1568,1570,1559,1549,1541,1539,1520,1525,1527,1526,1520,1519,1515,1514,1518,1520,1519,1519,1519,1519,1520,1519,1519,1523,1541,1571,1611,1655,1691,1713,1706,1682,1645,1608,1578,1559,1561,1572,1558,1520,1468,1415,1365,1320,1281,1250,1221,1199,1172,1133,1094,1064,1041,1024,1007,978,958,956,942,923,903,892,885,874,850,832,840,867,907,954,1007,1062,1115,1163,1204,1242,1291,1327,1330,1323,1344,1357,1362,1375,1382,1388,1388,1399,1413,1434,1439,1445,1446,1444,1440,1435,1429,1422,1419,1410
443,457,461,469,479,491,499,502,500,502,499,493,488,479,479,480,491,500,513,519,521,521,520,519,516,510,504,499,495,498,500,504,509,514,520,530,539,540,541,545,552,561,568,562,556,540,529,521,518,508,505,501,499,496,497,499,499,496,493,490,488,487,491,499,507,519,520,510,513,521,538,551,557,559,549,538,520,500,480,469,463,459,457,454,449,444,440,439,440,441,443,444,446,448,450,453,455,454,451,447,443,440,438,437,439,447,455,462,479,492,501,513,519,519,515,509,500,490,479,470,466,466,471,479,481,481,481,493,497,498,499,500,503,507,511,516,523,536,539,540,542,558,578,599,621,642,660,665,648,620,601,600,623,651,681,713,742,759,782,813,856,894,906,881,847,828,824,834,836,840,855,868,859,836,810,796,802,815,793,765,747,740,760,779,788,779,766,762,777,779,774,761,748,735,720,713,712,714,722,738,747,758,769,782,800,832,842,844,840,838,835,827,816,802,800,805,817,820,820,816,803,799,799,798,789,777,761,751,748,740,731,723,719,720,724,729,732,733,739,742,759,779,789,786,768,744,731,720,708,699,694,691,687,683,680,679,678,678,679,681,682,684,684,684,684,683,682,681,680,680,679,680,680,681,684,689,694,699,702,717,723,736,729,726,721,725,739,743,737,721,719,720,723,737,730,720,719,718,719,720,720,721,722,723,724,727,730,734,739,743,748,754,759,762,763,767,772,779,786,799,806,814,821,838,848,851,849,860,880,904,930,948,968,996,1029,1071,1120,1169,1217,1263,1307,1348,1379,1375,1386,1391,1404,1424,1443,1447,1443,1439,1435,1436,1443,1461,1476,1487,1496,1484,1483,1476,1460,1459,1459,1453,1429,1401,1381,1375,1380,1386,1393,1398,1400,1399,1379,1357,1324,1282,1239,1202,1170,1141,1118,1096,1075,1057,1049,1046,1033,1018,998,978,960,949,940,932,920,917,912,904,899,891,880,871,863,862,876,870,859,848,840,840,839,840,844,848,866,879,883,896,902,909,919,928,938,940,940,938,932,928,921,920,924,928,930,925,921,929,935,937,934,920,903,896,891,882,880,870,860,859,857,843,840,840,839,838,830,822,815,811,800,800,815,800,788,776,769,766,767,772,781,793,799,800,797,780,774,772,771,769,770,771,772,773,774,776,777,779,779,780,783,785,788,789,791,793,795,796,794,787,780,777,780,787,801,830,868,905,935,959,977,961,945,960,996,1042,1082,1116,1149,1185,1222,1256,1289,1325,1358,1383,1404,1426,1443,1462,1486,1521,1564,1595,1592,1580,1581,1593,1608,1617,1616,1600,1582,1580,1598,1617,1626,1641,1660,1680,1697,1698,1690,1678,1660,1660,1657,1638,1621,1613,1608,1603,1607,1599,1581,1565,1547,1524,1505,1492,1480,1464,1437,1407,1383,1369,1360,1364,1373,1384,1380,1383,1401,1419,1414,1398,1379,1361,1348,1337,1320,1311,1309,1310,1315,1321,1339,1351,1360,1369,1378,1380,1388,1400,1418,1440,1468,1497,1524,1552,1570,1579,1572,1561,1559,1559,1554,1547,1535,1539,1537,1531,1530,1532,1538,1540,1537,1531,1529,1528,1528,1528,1525,1527,1539,1565,1607,1660,1708,1729,1723,1704,1676,1641,1609,1591,1593,1600,1588,1553,1506,1458,1411,1369,1332,1301,1271,1236,1198,1156,1119,1093,1075,1056,1032,998,968,961,957,941,920,902,890,874,857,838,840,861,896,940,988,1039,1091,1143,1192,1236,1280,1315,1336,1347,1369,1381,1380,1377,1368,1362,1363,1377,1388,1409,1422,1437,1439,1443,1442,1440,1438,1438,1432,1420
432,438,442,452,461,477,484,497,499,503,503,500,499,493,490,489,493,500,511,517,520,519,517,515,511,505,500,496,494,499,502,506,513,521,527,533,540,541,541,542,544,546,542,539,536,522,519,512,506,500,500,500,499,499,500,502,503,500,496,495,494,494,494,496,501,519,529,533,521,528,539,553,560,561,550,536,519,499,480,469,463,460,460,459,453,446,440,440,440,441,443,445,447,450,453,456,459,459,455,451,447,442,439,438,440,447,459,471,484,499,508,519,523,523,520,519,511,500,490,479,472,470,473,478,479,479,488,496,499,500,500,502,507,510,514,515,517,520,521,529,531,541,558,579,600,620,635,633,617,600,592,600,627,668,711,752,783,798,810,836,871,912,936,911,878,856,857,863,859,862,875,892,876,846,818,804,819,828,812,783,760,751,769,789,798,783,774,780,797,799,792,779,762,747,730,719,713,714,720,733,740,751,760,770,781,797,835,839,837,823,824,818,803,792,788,791,798,800,800,798,789,780,779,778,770,760,750,743,739,734,727,723,724,728,732,739,740,741,748,760,780,798,801,792,770,745,732,718,701,694,690,688,684,681,679,679,679,679,681,682,684,685,685,685,685,684,683,682,681,680,680,680,679,680,682,685,689,692,694,700,702,711,704,702,711,727,737,736,721,712,710,711,714,720,720,716,716,718,719,720,721,722,723,723,725,727,730,733,737,740,744,751,759,761,764,767,771,776,780,791,800,810,819,829,839,839,841,864,894,922,944,962,987,1021,1061,1107,1158,1208,1257,1300,1340,1371,1395,1407,1422,1419,1434,1454,1473,1479,1474,1458,1442,1438,1448,1458,1461,1471,1473,1465,1475,1476,1479,1481,1481,1475,1452,1421,1396,1380,1381,1387,1394,1400,1402,1393,1366,1335,1299,1257,1212,1172,1139,1113,1096,1075,1053,1038,1029,1021,1012,998,982,969,959,948,939,931,923,919,913,900,897,895,889,879,875,879,887,880,868,856,840,839,840,842,841,848,860,870,875,882,898,911,922,939,953,961,963,960,956,947,938,930,928,927,925,920,915,913,909,910,909,900,896,886,883,878,879,868,859,860,864,858,849,845,841,836,820,807,799,792,781,783,792,797,781,773,767,765,765,767,771,778,781,786,786,780,777,775,774,775,775,773,774,774,775,775,776,777,778,780,784,788,790,792,794,796,798,800,799,789,777,779,784,793,802,828,859,892,925,959,979,979,969,981,1014,1059,1100,1129,1153,1184,1223,1264,1304,1343,1378,1407,1432,1451,1463,1479,1500,1529,1568,1598,1600,1595,1602,1625,1654,1670,1660,1634,1605,1591,1599,1611,1621,1635,1648,1664,1679,1680,1680,1679,1665,1657,1640,1622,1609,1600,1596,1583,1579,1567,1553,1538,1516,1490,1465,1448,1433,1424,1405,1384,1379,1377,1377,1375,1386,1398,1400,1403,1423,1438,1423,1400,1377,1357,1343,1336,1320,1310,1307,1309,1314,1321,1340,1357,1369,1382,1397,1404,1417,1427,1440,1460,1481,1503,1521,1543,1566,1581,1579,1576,1579,1580,1574,1564,1560,1548,1558,1560,1558,1558,1559,1558,1550,1543,1541,1539,1539,1539,1532,1531,1540,1568,1611,1665,1715,1742,1743,1725,1702,1678,1650,1633,1632,1631,1615,1584,1543,1502,1458,1415,1376,1345,1313,1277,1234,1190,1152,1121,1097,1072,1042,1007,981,965,961,956,937,918,901,882,861,841,839,858,892,935,976,1024,1078,1134,1181,1219,1253,1286,1339,1362,1392,1399,1389,1373,1350,1334,1336,1353,1367,1383,1400,1417,1423,1437,1439,1439,1440,1443,1439,1421
419,420,427,437,442,458,470,480,490,498,503,502,502,500,499,499,500,506,514,518,519,518,514,509,504,500,496,494,496,500,504,510,520,536,539,540,544,545,544,542,540,538,528,521,520,516,515,510,501,497,499,499,499,499,503,506,506,503,500,498,499,499,497,496,500,519,533,540,547,548,543,559,565,564,549,531,516,498,480,473,468,467,469,468,460,450,440,439,440,441,443,446,449,452,456,460,464,464,460,455,450,444,440,437,440,447,459,470,481,499,510,520,525,526,525,524,519,511,499,483,474,471,472,475,478,483,491,499,502,503,504,507,511,515,519,520,520,516,514,520,524,531,541,558,576,593,601,596,587,587,592,608,641,689,738,780,811,826,842,862,887,923,923,923,911,890,891,894,885,886,901,912,884,850,828,827,844,842,832,804,777,762,778,799,807,797,784,799,817,821,817,799,780,761,743,727,717,719,728,739,747,753,759,766,773,780,789,800,820,817,819,811,798,786,780,779,780,780,780,779,776,762,760,760,756,750,744,740,737,733,728,726,730,738,741,749,757,759,763,780,801,818,818,801,779,756,738,719,700,695,692,688,684,681,680,680,680,681,682,684,685,686,687,687,686,686,685,684,683,681,680,680,679,680,681,683,685,687,688,690,692,695,693,694,701,717,724,713,702,701,703,705,708,712,713,713,715,717,720,721,722,722,723,724,725,727,729,732,734,736,740,747,760,761,763,766,771,777,780,789,800,809,814,820,830,837,850,878,910,937,959,980,1006,1044,1088,1136,1188,1238,1285,1324,1357,1374,1389,1406,1435,1465,1465,1485,1501,1502,1491,1471,1455,1440,1447,1457,1454,1458,1454,1444,1448,1453,1464,1478,1480,1470,1460,1430,1401,1388,1385,1389,1395,1399,1395,1370,1335,1301,1264,1224,1182,1143,1112,1091,1076,1053,1033,1024,1016,1002,996,981,969,960,954,946,940,932,926,922,918,901,898,900,897,878,881,892,898,885,866,844,836,842,857,859,858,859,864,872,879,882,901,920,939,958,975,990,995,985,977,962,950,940,934,930,925,920,915,912,907,900,894,881,879,871,877,872,877,860,848,850,856,844,840,837,827,815,800,790,781,779,772,773,777,780,775,771,767,766,765,766,768,771,775,779,780,779,779,778,777,777,777,778,776,776,777,777,779,779,780,784,790,792,794,795,796,797,799,801,790,781,778,780,787,799,808,827,849,878,916,954,982,997,991,1001,1032,1075,1115,1138,1155,1177,1213,1254,1298,1345,1393,1433,1465,1483,1493,1501,1515,1531,1563,1595,1601,1603,1618,1651,1687,1701,1696,1675,1637,1606,1608,1620,1636,1642,1657,1664,1679,1681,1680,1678,1662,1645,1624,1612,1599,1587,1579,1569,1559,1543,1537,1522,1496,1467,1442,1421,1403,1398,1388,1380,1385,1392,1395,1384,1399,1416,1420,1423,1437,1431,1423,1393,1365,1343,1329,1320,1313,1308,1307,1311,1319,1331,1346,1362,1383,1406,1423,1434,1444,1450,1461,1480,1499,1516,1524,1539,1559,1577,1570,1580,1592,1599,1597,1589,1586,1583,1577,1584,1584,1582,1580,1577,1566,1569,1567,1555,1549,1545,1540,1539,1545,1571,1613,1665,1717,1753,1753,1750,1736,1720,1697,1680,1672,1657,1629,1592,1555,1521,1480,1435,1392,1359,1330,1298,1255,1210,1170,1133,1099,1064,1037,1008,999,988,965,959,941,928,917,897,876,855,840,853,883,928,974,1023,1073,1123,1163,1194,1254,1288,1319,1345,1370,1379,1371,1347,1319,1303,1310,1327,1347,1364,1382,1400,1411,1421,1429,1436,1440,1442,1439,1420
407,402,411,418,423,439,456,462,475,490,499,500,500,501,504,506,509,514,519,520,519,518,512,504,499,495,493,496,499,503,508,514,521,539,548,551,551,551,549,545,539,528,520,515,515,517,519,519,516,502,498,499,500,500,508,511,512,508,503,500,501,501,499,496,500,519,539,552,559,559,560,567,572,566,548,524,504,494,484,479,475,475,479,479,471,459,446,442,441,442,444,447,451,455,460,465,470,471,466,460,454,446,440,437,439,446,459,469,480,498,508,520,525,527,527,527,524,519,509,496,480,472,471,477,480,485,492,499,502,505,507,510,515,520,526,529,530,521,515,520,527,533,537,540,550,559,564,563,569,588,605,631,663,703,741,775,802,827,853,872,877,907,931,935,930,923,921,930,926,927,935,933,906,878,864,865,872,859,840,814,788,775,789,808,819,816,806,821,838,840,835,813,794,777,757,737,722,721,737,750,759,760,761,770,779,788,798,800,804,809,808,800,789,779,772,769,767,767,765,761,759,753,750,749,747,744,741,740,739,736,731,729,733,742,756,761,770,778,782,799,818,825,818,799,776,751,732,718,700,699,696,691,687,684,682,681,682,683,684,685,686,687,688,688,688,687,686,685,684,683,682,681,680,680,681,682,684,685,685,686,688,689,690,693,699,700,702,701,700,699,700,702,705,708,710,711,714,717,719,720,721,722,723,725,726,728,729,731,733,734,736,758,760,760,761,764,770,779,782,790,799,805,811,819,827,837,853,879,907,937,967,995,1027,1067,1112,1158,1204,1251,1290,1319,1344,1364,1378,1413,1450,1479,1499,1510,1520,1517,1498,1479,1461,1447,1439,1437,1431,1438,1436,1424,1419,1424,1441,1460,1468,1465,1446,1423,1402,1393,1387,1387,1389,1388,1373,1341,1301,1263,1227,1190,1153,1121,1098,1081,1071,1050,1026,1018,1002,990,980,968,959,953,950,944,939,932,925,920,915,904,900,899,896,880,886,897,901,888,862,844,841,858,876,874,870,869,871,879,888,899,918,939,960,981,1001,1016,1017,1007,994,978,960,947,940,935,927,921,919,919,919,917,903,888,871,861,861,865,859,840,825,832,835,823,819,813,802,793,782,779,773,770,766,766,768,771,771,772,771,771,770,768,768,771,775,778,779,779,780,779,779,779,780,780,779,778,779,780,782,783,786,792,799,800,800,799,798,798,800,799,789,782,779,780,788,799,807,820,843,878,922,963,989,1000,1002,1014,1042,1085,1122,1139,1153,1172,1202,1241,1290,1346,1405,1458,1497,1518,1526,1521,1521,1527,1557,1585,1601,1617,1624,1656,1690,1705,1705,1695,1670,1626,1621,1636,1655,1662,1678,1688,1700,1707,1701,1693,1680,1664,1639,1618,1599,1582,1574,1571,1564,1553,1552,1537,1509,1480,1450,1422,1401,1392,1388,1389,1401,1414,1409,1402,1416,1430,1439,1441,1442,1436,1416,1385,1362,1341,1350,1329,1315,1309,1309,1315,1327,1343,1360,1381,1410,1441,1463,1470,1470,1471,1481,1497,1507,1516,1520,1531,1543,1563,1578,1589,1599,1601,1603,1600,1600,1602,1614,1629,1615,1610,1601,1598,1594,1605,1598,1583,1565,1559,1553,1555,1566,1578,1610,1656,1706,1746,1761,1770,1770,1762,1742,1718,1692,1660,1613,1568,1530,1492,1447,1398,1357,1326,1301,1272,1235,1193,1150,1115,1085,1060,1040,1022,1016,997,976,960,941,930,919,900,879,860,852,862,880,923,973,1023,1068,1106,1137,1185,1220,1258,1290,1316,1333,1340,1332,1308,1285,1274,1287,1305,1325,1350,1374,1397,1416,1423,1430,1437,1439,1439,1433,1419
398,393,396,400,408,421,437,443,459,478,489,492,495,500,506,511,515,519,521,520,520,519,513,500,497,493,493,499,504,509,514,519,526,540,554,559,558,556,553,547,539,528,519,515,516,520,524,526,525,516,502,505,508,512,519,520,519,514,508,504,504,502,499,496,500,519,541,558,564,564,566,579,579,574,558,538,519,502,491,484,480,480,484,485,479,461,449,444,442,443,446,450,455,459,465,473,480,480,473,466,459,449,440,435,436,441,458,467,479,492,501,518,523,526,528,527,524,520,513,500,482,474,474,477,480,485,492,497,500,504,508,513,519,526,533,539,541,540,525,531,540,549,550,542,539,538,544,565,585,610,630,653,675,704,719,746,769,796,823,840,845,870,904,925,934,939,950,961,962,962,966,957,939,920,908,899,884,862,838,812,794,784,798,818,829,830,832,847,858,853,840,821,799,779,759,741,737,733,740,758,771,779,779,781,789,799,807,809,809,805,800,789,780,772,766,762,760,760,759,755,752,748,746,745,744,743,742,741,741,739,734,734,742,757,769,778,783,797,800,811,820,818,801,781,759,738,721,712,704,702,699,695,690,687,685,685,685,686,686,687,688,688,689,689,689,688,688,687,686,684,683,682,682,682,682,683,684,684,685,686,687,688,689,692,695,696,697,698,699,700,701,702,704,706,708,711,713,716,718,720,721,722,724,725,727,729,730,732,733,734,740,751,756,758,759,760,765,774,780,788,795,800,806,819,826,839,857,875,896,925,960,996,1041,1088,1134,1173,1205,1238,1267,1292,1319,1347,1379,1419,1453,1475,1480,1480,1474,1499,1484,1477,1466,1449,1422,1411,1405,1414,1409,1397,1383,1392,1414,1436,1443,1442,1430,1419,1410,1399,1387,1380,1379,1378,1357,1325,1284,1241,1204,1172,1142,1120,1106,1101,1095,1078,1051,1029,1009,988,970,959,952,948,946,940,936,930,924,919,913,906,901,895,881,886,893,900,898,881,860,849,851,869,880,880,879,880,881,888,901,917,936,957,979,999,1018,1026,1026,1017,998,978,960,950,944,939,927,919,919,922,923,920,916,895,869,851,841,841,837,822,814,817,811,802,799,791,781,779,773,771,767,764,762,762,765,769,773,780,781,781,779,772,770,773,777,779,780,780,780,780,779,781,782,782,780,777,780,786,788,789,793,800,808,809,807,804,800,798,802,799,781,779,779,781,789,799,808,821,849,890,936,976,991,1004,1016,1023,1050,1087,1119,1139,1148,1159,1183,1220,1272,1336,1405,1468,1513,1538,1545,1538,1537,1542,1561,1580,1597,1616,1622,1643,1665,1683,1690,1694,1677,1634,1633,1642,1662,1681,1701,1715,1720,1723,1719,1707,1696,1677,1655,1629,1609,1597,1585,1591,1590,1588,1585,1569,1540,1507,1473,1440,1415,1400,1399,1402,1417,1425,1423,1420,1428,1442,1457,1458,1443,1423,1402,1380,1359,1348,1359,1351,1323,1312,1312,1319,1337,1357,1380,1408,1445,1483,1508,1509,1497,1497,1499,1503,1509,1514,1520,1529,1540,1559,1577,1588,1595,1599,1599,1600,1605,1618,1626,1639,1648,1636,1623,1620,1622,1633,1622,1605,1591,1581,1574,1573,1580,1596,1609,1641,1687,1730,1758,1778,1790,1796,1777,1742,1696,1642,1586,1536,1491,1446,1397,1346,1309,1283,1259,1232,1199,1161,1124,1105,1087,1067,1050,1036,1018,995,967,956,939,927,916,900,883,868,859,862,888,928,972,1020,1056,1106,1124,1150,1186,1224,1257,1278,1291,1293,1284,1264,1252,1253,1268,1296,1321,1343,1365,1388,1408,1421,1430,1439,1440,1437,1431,1420
380,383,386,390,399,409,420,429,441,460,476,481,489,500,507,512,516,520,521,521,520,519,519,508,499,489,491,499,508,514,519,520,530,541,558,561,560,559,557,548,539,528,520,516,519,524,529,532,531,525,519,519,519,520,525,527,526,520,514,510,508,504,500,497,500,518,537,552,559,559,560,571,580,579,561,547,536,517,499,491,486,485,487,485,477,460,450,445,443,445,449,454,459,465,472,483,497,497,483,471,460,451,440,434,434,439,451,461,479,490,500,513,520,525,527,527,525,523,519,510,481,476,476,479,481,485,491,496,499,504,508,513,520,528,539,549,558,558,548,544,558,575,581,568,551,541,555,577,601,631,639,647,655,675,693,713,735,757,785,805,821,838,871,900,927,953,965,977,979,979,981,978,974,962,945,918,882,848,836,825,814,808,809,820,838,843,856,866,869,859,843,825,801,779,761,749,744,739,740,759,779,797,800,800,803,813,819,819,815,806,798,780,773,767,763,760,758,757,755,752,750,747,746,746,745,745,744,742,741,739,737,742,757,768,779,791,799,805,807,812,815,799,778,759,740,722,713,709,706,705,703,699,695,692,691,691,691,691,690,689,689,689,689,690,690,689,689,688,687,686,685,684,683,683,683,684,684,685,686,687,688,689,691,692,694,695,698,699,700,701,701,702,704,706,708,710,713,715,718,719,721,723,724,726,728,730,732,734,737,739,742,748,753,755,756,757,760,770,779,786,792,797,800,813,823,839,853,863,886,919,959,1001,1053,1104,1145,1170,1185,1206,1230,1257,1292,1331,1372,1407,1430,1441,1434,1426,1419,1420,1462,1468,1465,1446,1412,1386,1376,1382,1373,1357,1344,1359,1384,1408,1416,1415,1406,1400,1402,1398,1381,1369,1362,1365,1353,1326,1289,1248,1212,1183,1160,1145,1145,1142,1136,1114,1082,1051,1021,989,964,954,947,941,940,939,935,927,920,915,909,904,897,881,881,897,901,899,889,875,860,852,853,863,879,887,891,898,899,904,917,928,943,964,989,1005,1017,1020,1018,1001,980,961,951,946,942,938,921,911,914,919,921,917,902,880,858,840,831,827,820,810,804,800,796,791,786,780,774,772,770,768,765,762,761,761,765,772,782,798,804,802,785,777,774,776,779,780,780,780,780,780,780,782,783,784,782,780,789,799,793,794,800,811,819,817,814,809,800,802,803,799,781,778,779,782,789,800,812,827,856,894,935,971,997,1017,1019,1027,1048,1077,1108,1132,1137,1143,1167,1204,1257,1323,1393,1458,1506,1538,1558,1564,1571,1571,1578,1578,1582,1602,1618,1627,1630,1642,1663,1674,1661,1640,1638,1651,1675,1698,1718,1726,1727,1725,1717,1698,1682,1670,1658,1639,1623,1618,1614,1624,1621,1616,1605,1592,1563,1526,1485,1447,1420,1412,1417,1421,1432,1441,1448,1443,1444,1458,1472,1476,1455,1427,1404,1388,1372,1350,1359,1351,1323,1313,1314,1321,1340,1368,1401,1441,1484,1525,1550,1543,1523,1512,1506,1504,1507,1513,1520,1529,1540,1552,1563,1577,1579,1580,1582,1589,1594,1607,1620,1638,1648,1650,1640,1639,1638,1634,1637,1623,1619,1612,1609,1607,1610,1622,1629,1643,1673,1709,1741,1772,1802,1808,1799,1758,1701,1639,1578,1520,1466,1415,1364,1315,1286,1261,1233,1205,1178,1154,1132,1122,1108,1088,1064,1041,1012,977,958,942,933,921,903,899,897,879,869,874,902,937,971,1010,1060,1079,1097,1120,1153,1190,1220,1238,1248,1248,1237,1222,1223,1243,1275,1309,1337,1361,1384,1406,1416,1422,1429,1439,1442,1439,1433,1427
377,379,380,383,390,400,409,418,423,439,458,468,480,497,506,509,513,516,519,519,519,518,519,508,496,481,485,499,512,520,527,531,539,547,557,560,561,561,559,547,539,528,520,516,520,527,533,536,535,526,520,528,530,530,533,534,533,527,520,515,513,508,503,499,499,508,523,537,542,548,551,559,569,570,558,548,538,520,501,495,490,487,484,477,462,453,448,446,446,448,453,459,464,471,481,497,503,505,498,483,470,458,440,434,435,440,452,461,479,490,500,514,520,525,529,530,529,529,526,501,490,480,478,479,480,484,491,497,500,504,508,513,520,528,540,553,564,578,575,567,579,599,613,602,579,560,559,575,591,615,626,626,625,641,660,680,704,728,759,790,817,837,859,881,912,937,944,945,949,961,981,1003,1009,998,969,926,879,848,851,857,855,841,823,820,837,856,871,880,879,861,840,820,799,781,769,759,750,740,740,759,780,800,816,821,827,830,830,827,818,801,791,779,772,766,762,759,757,755,754,752,750,749,749,749,749,749,747,745,742,740,741,756,766,774,782,798,803,804,800,798,789,772,756,740,728,719,712,710,709,709,707,704,700,699,700,701,701,700,695,692,690,690,690,690,690,690,690,689,689,688,686,685,685,684,684,685,686,687,688,689,691,692,693,694,695,697,699,701,701,702,702,703,704,706,708,710,713,715,718,719,721,723,725,727,729,731,734,738,739,741,744,748,751,754,755,756,760,769,779,784,791,799,804,819,836,847,859,873,896,929,969,1013,1064,1110,1139,1153,1153,1166,1190,1221,1263,1310,1353,1382,1393,1392,1377,1366,1364,1376,1397,1453,1454,1430,1396,1366,1347,1343,1333,1321,1310,1327,1350,1369,1377,1380,1372,1374,1385,1387,1376,1361,1355,1355,1336,1313,1295,1275,1250,1223,1198,1188,1193,1188,1173,1140,1099,1057,1023,994,973,960,950,940,939,939,933,925,919,911,903,899,891,889,897,904,905,899,882,875,867,859,862,876,888,898,905,917,921,929,938,943,960,980,998,1005,1012,1010,998,977,956,942,939,940,939,931,916,901,905,910,909,899,880,860,841,830,824,819,813,805,799,795,791,787,783,779,775,772,770,767,765,762,761,763,768,779,798,820,831,820,806,790,781,779,780,781,781,782,782,783,783,784,786,787,787,790,799,802,804,800,808,819,819,820,819,810,807,807,806,799,788,782,780,782,788,799,818,843,875,906,939,968,991,1015,1018,1020,1035,1055,1081,1104,1116,1128,1154,1196,1254,1317,1380,1438,1487,1524,1555,1582,1585,1595,1590,1580,1580,1597,1610,1618,1616,1620,1629,1632,1640,1640,1641,1653,1674,1704,1721,1728,1726,1719,1704,1684,1672,1660,1655,1646,1639,1632,1638,1643,1639,1622,1605,1586,1559,1523,1482,1442,1421,1420,1431,1439,1449,1458,1474,1471,1467,1469,1479,1482,1474,1445,1418,1398,1376,1351,1349,1330,1316,1313,1319,1328,1346,1380,1425,1473,1520,1559,1577,1561,1538,1521,1511,1507,1508,1513,1519,1526,1538,1547,1556,1560,1561,1565,1574,1581,1584,1591,1604,1621,1637,1642,1641,1639,1645,1644,1647,1642,1648,1648,1647,1641,1641,1652,1656,1661,1675,1695,1725,1758,1795,1820,1822,1787,1731,1665,1598,1532,1470,1416,1367,1327,1302,1276,1249,1218,1193,1180,1172,1161,1143,1117,1087,1056,1020,981,959,945,940,936,917,903,898,880,879,895,923,953,976,1022,1039,1056,1077,1102,1128,1159,1186,1203,1210,1205,1194,1190,1212,1247,1283,1317,1347,1376,1401,1409,1416,1419,1422,1439,1446,1447,1443,1441
377,378,378,380,384,394,400,406,410,421,437,450,461,480,496,500,506,509,510,514,517,519,517,500,482,474,480,500,518,527,535,539,545,550,555,558,559,560,558,542,535,530,524,520,525,532,537,539,539,527,521,537,538,538,539,540,539,535,526,520,519,512,505,499,497,501,517,521,529,538,540,543,557,558,549,539,533,520,505,499,491,485,478,462,454,449,448,448,451,453,461,467,471,476,490,502,508,510,505,497,479,460,440,435,439,447,459,466,479,489,501,518,525,528,531,533,533,532,519,501,490,482,479,479,479,483,491,499,502,505,509,514,519,528,540,559,578,597,599,594,602,622,639,633,607,580,564,578,582,589,597,599,602,619,636,654,682,714,750,786,818,840,862,883,901,913,906,905,918,939,970,1002,1020,1015,979,931,894,879,889,902,898,875,844,822,829,857,879,891,888,867,841,820,802,789,778,767,758,746,740,758,779,802,821,837,842,846,840,832,819,800,788,780,775,769,762,759,757,755,754,753,753,753,753,753,754,754,752,749,746,745,748,759,770,779,788,799,799,797,783,777,764,752,739,727,720,715,713,712,713,714,714,712,710,711,713,718,718,712,700,694,691,690,691,691,691,691,691,690,690,689,688,687,686,686,686,686,687,689,690,692,694,695,697,697,697,697,699,701,702,703,703,704,705,707,709,711,714,716,718,720,721,723,725,727,730,733,738,739,741,743,745,748,751,754,756,758,760,767,775,780,788,795,801,819,831,841,860,884,914,944,982,1025,1068,1100,1116,1117,1110,1121,1151,1192,1239,1284,1324,1347,1350,1339,1322,1312,1318,1339,1364,1388,1394,1403,1371,1342,1320,1306,1294,1289,1285,1300,1320,1330,1336,1343,1342,1350,1362,1371,1361,1351,1344,1337,1315,1308,1311,1310,1300,1276,1247,1233,1234,1226,1198,1156,1110,1065,1030,1008,987,970,959,949,940,936,930,923,919,909,900,900,900,901,907,910,907,899,887,879,872,864,877,882,891,900,911,924,938,947,957,964,982,999,1005,1003,1005,996,976,953,939,931,931,932,929,918,902,895,899,900,893,879,859,841,830,823,819,815,809,804,800,796,792,788,783,780,777,774,771,769,766,764,763,766,772,783,809,846,868,854,833,813,794,787,784,783,783,784,785,786,787,787,788,789,791,794,799,800,802,806,813,820,821,822,819,815,813,813,809,800,790,784,781,782,786,795,813,846,885,921,953,977,982,996,1001,1003,1018,1033,1050,1070,1089,1114,1149,1196,1257,1319,1375,1425,1467,1509,1547,1577,1596,1602,1599,1587,1584,1592,1600,1607,1609,1613,1620,1636,1651,1663,1660,1661,1678,1701,1719,1726,1725,1720,1717,1700,1681,1663,1655,1646,1637,1622,1629,1639,1637,1616,1590,1565,1538,1504,1468,1440,1430,1438,1452,1461,1467,1479,1497,1497,1488,1480,1480,1477,1473,1446,1418,1394,1366,1340,1325,1314,1308,1309,1320,1338,1363,1402,1451,1502,1544,1576,1579,1557,1533,1520,1512,1509,1511,1514,1516,1520,1530,1539,1540,1550,1559,1560,1571,1579,1580,1581,1590,1602,1618,1626,1626,1623,1637,1651,1656,1659,1666,1672,1675,1668,1665,1672,1680,1688,1692,1702,1726,1757,1796,1834,1852,1826,1771,1701,1627,1553,1487,1437,1403,1377,1354,1322,1287,1255,1234,1225,1217,1198,1174,1143,1106,1070,1030,990,963,951,947,940,928,916,899,880,883,901,929,967,990,1007,1020,1038,1061,1090,1106,1129,1153,1170,1172,1163,1156,1172,1210,1251,1285,1315,1343,1367,1390,1402,1405,1404,1417,1437,1451,1461,1467,1469
378,379,379,378,380,390,396,400,404,410,420,432,443,463,481,491,499,499,500,507,511,510,502,491,479,470,479,499,518,529,539,543,546,549,552,555,557,558,556,548,541,540,534,533,534,537,539,536,533,530,535,543,540,539,541,542,542,539,529,522,519,513,506,500,497,500,509,514,520,527,530,533,540,541,539,530,519,502,500,493,486,479,471,459,453,450,450,453,459,463,476,479,479,481,498,506,510,509,503,497,479,459,440,436,440,448,459,464,473,481,499,517,525,529,532,535,535,530,519,500,489,483,479,478,477,480,490,499,504,507,510,514,519,528,540,559,579,600,614,618,625,646,668,661,637,609,588,594,581,575,580,590,602,617,621,639,672,708,742,773,803,836,871,896,896,886,870,881,904,939,972,997,1017,1017,985,944,918,920,936,946,935,905,869,843,840,858,879,899,896,871,845,830,816,798,781,772,767,759,751,759,780,807,825,840,849,859,850,838,822,802,791,783,779,773,767,763,757,756,755,755,755,756,756,757,759,759,756,753,750,749,752,760,770,779,787,797,797,783,769,760,748,739,729,720,716,714,714,715,717,719,720,719,719,719,720,723,720,717,700,694,691,691,691,691,692,692,692,692,691,690,689,689,688,687,687,688,689,690,692,694,696,698,699,700,699,698,699,701,702,703,703,704,705,707,709,711,714,717,719,720,722,723,726,728,734,736,739,740,741,744,746,750,753,755,758,759,762,769,775,780,788,795,800,818,826,840,861,889,923,955,991,1029,1060,1079,1082,1073,1067,1079,1114,1160,1208,1252,1288,1308,1306,1288,1272,1266,1280,1307,1335,1355,1359,1335,1341,1316,1293,1273,1264,1271,1267,1282,1296,1308,1319,1320,1330,1340,1352,1358,1353,1346,1340,1335,1325,1321,1340,1349,1345,1321,1290,1269,1262,1251,1216,1167,1118,1073,1039,1016,991,975,960,949,940,936,927,920,918,912,908,917,920,920,920,915,907,899,890,884,879,869,879,889,899,909,924,945,959,965,976,990,1007,1018,1012,997,997,978,956,940,930,924,925,925,917,902,892,888,890,888,878,860,842,832,825,820,817,813,809,805,801,799,795,790,786,782,779,776,773,770,768,766,766,770,779,792,822,863,894,884,859,835,816,801,791,787,786,788,789,790,790,790,790,790,792,795,798,798,800,804,811,816,823,824,823,820,818,819,814,800,790,785,783,784,787,792,806,839,876,910,942,962,961,960,963,976,995,1012,1028,1046,1072,1106,1148,1198,1259,1320,1376,1426,1471,1518,1560,1589,1607,1618,1604,1593,1590,1593,1600,1607,1611,1619,1631,1648,1667,1677,1678,1673,1681,1701,1719,1725,1725,1723,1721,1717,1698,1679,1659,1639,1619,1602,1605,1618,1611,1589,1562,1536,1510,1478,1452,1439,1442,1460,1481,1488,1485,1493,1508,1507,1497,1481,1479,1474,1452,1424,1399,1375,1351,1328,1314,1306,1304,1310,1323,1349,1381,1423,1474,1520,1548,1564,1557,1535,1523,1517,1514,1512,1514,1519,1521,1527,1540,1549,1557,1560,1566,1569,1581,1589,1586,1580,1585,1592,1599,1601,1602,1608,1621,1637,1659,1665,1670,1679,1684,1688,1689,1692,1702,1715,1717,1719,1731,1756,1798,1844,1869,1857,1806,1735,1656,1581,1521,1479,1456,1440,1416,1379,1337,1301,1281,1269,1253,1225,1192,1156,1114,1078,1043,1008,977,959,949,940,930,919,900,886,887,901,942,958,969,988,998,1020,1046,1073,1088,1102,1116,1128,1127,1120,1127,1157,1204,1249,1286,1315,1336,1347,1363,1370,1373,1381,1400,1423,1449,1475,1489,1498
379,379,379,380,384,394,399,402,405,411,422,440,456,470,479,485,488,490,499,504,506,505,499,487,475,460,469,490,510,521,532,538,541,545,546,551,555,558,558,559,559,557,543,537,537,539,538,533,532,535,555,554,541,539,540,541,539,534,525,520,517,512,506,501,499,501,506,511,515,520,523,526,530,532,532,527,519,502,493,486,480,475,468,460,455,453,454,460,470,478,486,489,489,491,500,506,508,505,497,482,470,457,440,436,439,447,455,460,469,479,491,503,518,525,532,537,537,531,519,500,489,483,479,477,477,480,489,499,503,507,511,516,520,528,539,553,570,597,619,632,647,674,694,686,663,638,617,615,597,582,597,616,630,637,628,631,659,692,721,750,783,819,856,877,874,855,848,860,896,932,957,974,997,1007,997,975,963,971,988,988,969,934,897,869,858,858,872,898,899,882,859,838,819,799,787,781,780,776,761,760,778,807,827,842,858,860,853,841,835,816,800,789,780,775,771,766,760,757,757,757,758,759,759,760,762,762,760,756,754,753,754,760,767,774,780,788,781,771,760,750,740,732,725,719,717,716,716,717,720,722,723,723,724,724,724,723,717,703,696,693,692,691,692,692,692,693,693,693,692,692,691,690,689,689,689,689,690,692,693,695,697,699,700,700,700,699,700,701,702,703,703,704,706,707,709,712,714,717,719,720,722,723,726,731,734,737,739,740,742,745,748,752,755,757,759,760,765,772,779,785,792,799,800,813,821,839,859,883,913,948,985,1019,1041,1052,1042,1028,1029,1045,1079,1125,1174,1218,1251,1267,1262,1241,1224,1225,1246,1273,1301,1319,1320,1297,1275,1285,1262,1244,1242,1255,1261,1280,1300,1321,1340,1347,1351,1356,1360,1360,1353,1350,1351,1352,1355,1359,1375,1378,1368,1345,1317,1298,1283,1259,1218,1167,1120,1074,1040,1015,991,975,960,950,943,939,929,930,925,919,920,928,938,939,933,919,901,893,887,883,879,873,880,897,909,922,944,968,986,992,996,1014,1020,1021,1018,1001,989,966,952,939,928,920,919,917,902,892,885,880,879,877,862,850,839,831,825,820,817,813,809,806,802,800,797,793,789,784,780,777,775,773,770,768,768,771,779,790,815,851,885,899,883,854,833,817,802,793,791,792,794,795,794,793,791,791,793,795,797,798,800,804,809,816,820,826,829,827,820,819,818,801,791,787,787,789,792,796,811,835,859,883,907,925,928,924,928,946,968,990,1012,1036,1066,1099,1144,1195,1252,1312,1370,1426,1477,1527,1567,1599,1611,1619,1617,1601,1599,1602,1616,1620,1622,1637,1657,1680,1694,1689,1680,1680,1689,1707,1720,1723,1723,1721,1719,1718,1701,1685,1660,1630,1602,1582,1581,1585,1575,1554,1528,1502,1478,1453,1440,1443,1460,1483,1503,1514,1509,1512,1519,1510,1491,1477,1466,1454,1429,1404,1382,1362,1344,1327,1312,1306,1308,1318,1338,1366,1400,1440,1483,1519,1529,1532,1530,1522,1519,1519,1520,1520,1521,1528,1537,1542,1556,1561,1565,1571,1578,1583,1597,1600,1599,1597,1592,1590,1591,1591,1593,1599,1608,1619,1628,1639,1661,1671,1681,1697,1702,1707,1718,1722,1726,1728,1736,1757,1797,1844,1877,1866,1826,1764,1693,1626,1573,1536,1512,1494,1464,1421,1376,1338,1317,1300,1276,1240,1199,1157,1113,1080,1050,1017,982,960,950,940,931,918,902,891,890,917,936,949,959,963,971,999,1024,1048,1064,1073,1076,1079,1076,1078,1098,1142,1192,1234,1268,1297,1314,1320,1327,1328,1333,1350,1376,1404,1436,1472,1508,1501
379,378,380,384,390,399,402,405,412,422,440,457,470,479,480,479,479,485,494,499,500,499,493,480,462,454,462,486,504,514,519,521,529,537,540,548,555,559,560,563,563,557,557,541,538,540,538,533,553,530,549,559,548,540,540,539,536,529,520,518,515,511,507,503,502,504,507,511,514,517,519,521,525,528,529,528,524,516,501,492,480,475,469,463,459,457,460,467,479,486,493,499,500,500,503,505,505,499,482,471,460,450,439,436,439,447,454,460,471,480,490,499,510,520,539,540,539,532,519,500,489,483,479,477,477,480,489,499,503,507,512,519,525,532,540,549,562,590,618,640,666,694,705,700,685,663,643,636,618,605,625,650,657,634,628,621,643,675,705,734,773,813,844,844,834,824,832,855,891,918,933,941,969,995,1007,1011,1018,1028,1036,1020,996,958,918,889,875,864,880,899,903,891,863,837,818,802,801,801,800,795,778,761,770,802,827,848,862,864,859,851,846,835,815,799,787,780,774,767,760,757,758,759,760,761,762,763,764,764,762,759,757,755,756,760,765,770,775,779,773,766,759,749,739,732,726,722,720,719,719,720,721,722,723,724,724,724,723,717,702,696,693,693,693,693,693,693,693,694,694,694,694,693,693,692,691,690,690,691,691,693,694,696,697,699,700,700,700,700,700,700,701,702,703,704,706,707,709,712,714,717,718,720,721,723,728,730,733,736,738,740,743,747,751,755,759,760,760,761,769,775,780,785,791,800,810,819,826,840,858,877,902,932,969,1000,1017,1018,1005,991,999,1018,1047,1088,1135,1180,1211,1224,1220,1202,1188,1193,1213,1240,1262,1280,1280,1263,1242,1229,1219,1230,1233,1246,1271,1297,1323,1352,1378,1388,1384,1376,1379,1376,1362,1361,1369,1378,1385,1391,1398,1389,1371,1345,1323,1317,1298,1257,1207,1156,1112,1070,1034,1006,986,975,960,953,945,935,920,938,927,919,927,939,943,939,937,919,900,889,883,880,878,877,881,900,920,940,964,989,1007,1016,1008,1019,1023,1020,1014,1000,990,977,958,941,931,919,911,901,889,884,877,870,867,861,851,844,839,833,826,820,819,815,811,807,804,801,799,797,792,787,782,779,777,775,772,770,769,770,774,781,802,832,866,891,897,873,847,831,816,800,795,797,799,799,797,795,793,792,793,796,798,799,801,808,812,815,820,830,839,839,830,820,813,799,791,789,791,795,799,801,817,827,841,858,876,891,901,901,911,923,944,972,998,1023,1050,1084,1129,1178,1231,1289,1349,1411,1471,1525,1561,1596,1617,1615,1619,1612,1612,1618,1627,1637,1643,1664,1694,1720,1723,1703,1683,1685,1693,1704,1718,1720,1719,1717,1708,1700,1687,1673,1652,1621,1589,1568,1558,1549,1536,1515,1495,1475,1455,1440,1444,1467,1488,1502,1517,1528,1527,1520,1511,1502,1482,1472,1465,1454,1428,1401,1379,1359,1339,1321,1311,1309,1316,1333,1360,1383,1415,1449,1480,1500,1502,1503,1511,1515,1520,1528,1538,1539,1539,1541,1549,1559,1567,1570,1572,1579,1589,1599,1608,1610,1610,1608,1600,1593,1591,1591,1592,1595,1599,1606,1613,1622,1638,1660,1670,1683,1697,1707,1717,1720,1730,1738,1745,1771,1807,1850,1883,1885,1855,1804,1742,1682,1633,1594,1560,1526,1481,1426,1378,1344,1327,1311,1278,1237,1194,1148,1105,1078,1054,1026,991,966,958,948,938,923,916,893,895,902,920,937,949,957,963,989,1009,1022,1031,1032,1026,1023,1024,1041,1074,1119,1164,1204,1236,1262,1277,1282,1286,1284,1294,1318,1348,1379,1414,1452,1489,1509
381,380,386,390,394,399,402,406,419,437,456,465,472,476,472,468,463,477,487,491,491,492,487,476,460,454,460,480,499,507,509,511,517,523,539,551,560,565,568,571,569,564,559,546,540,541,537,526,559,526,542,559,551,540,539,538,534,528,522,519,516,512,508,505,505,507,510,514,516,517,518,520,525,528,529,529,526,519,508,499,489,480,472,465,460,460,464,471,480,490,501,513,518,511,508,507,505,499,482,471,460,451,440,436,440,450,459,468,479,486,493,500,521,539,549,551,541,533,519,500,488,482,479,478,479,482,489,496,500,505,512,520,531,540,546,551,561,586,614,638,666,689,699,703,697,686,665,657,639,630,652,677,679,659,639,631,649,682,715,745,781,813,822,806,792,802,826,859,891,899,905,912,945,984,1018,1045,1063,1074,1073,1049,1016,974,935,906,892,889,898,906,899,875,845,822,816,820,828,829,820,809,795,777,775,792,821,847,862,867,867,861,854,847,833,812,796,787,779,770,763,760,762,764,762,764,765,766,767,767,765,762,759,757,757,759,763,767,770,771,767,760,755,747,739,733,728,725,723,722,722,721,722,722,723,723,722,720,718,702,697,695,695,696,695,695,694,694,695,695,695,695,695,695,694,694,693,692,692,692,692,693,694,696,697,698,698,699,699,699,700,700,701,702,703,704,705,707,709,711,714,716,718,719,723,725,727,730,733,735,737,739,744,750,755,760,767,772,778,779,779,779,780,782,790,801,818,823,829,840,854,868,894,924,954,976,987,983,972,963,977,997,1021,1053,1094,1134,1163,1174,1173,1166,1161,1166,1180,1198,1217,1233,1236,1223,1219,1218,1221,1239,1241,1268,1301,1328,1359,1392,1421,1429,1418,1402,1396,1388,1378,1371,1379,1388,1398,1402,1398,1379,1360,1341,1327,1314,1283,1238,1187,1140,1101,1064,1033,1008,983,964,960,959,952,946,934,920,920,923,932,940,944,939,924,910,899,887,880,879,880,881,889,909,935,959,985,1007,1019,1023,1019,1020,1019,1013,1008,999,988,978,960,946,938,921,909,894,881,878,862,860,859,852,844,839,835,834,827,820,821,816,814,810,806,803,801,799,795,789,785,782,779,777,775,773,772,772,774,779,793,815,842,868,884,880,862,841,819,801,796,799,802,802,800,799,795,792,793,797,799,801,806,810,813,815,820,828,836,840,838,823,814,801,793,792,795,799,803,806,815,820,831,843,861,880,897,903,918,922,934,957,990,1022,1047,1074,1112,1155,1202,1255,1316,1383,1451,1513,1562,1599,1607,1615,1619,1617,1619,1627,1638,1649,1665,1694,1730,1757,1755,1730,1702,1691,1698,1701,1709,1717,1720,1718,1703,1693,1679,1661,1637,1608,1581,1558,1541,1522,1508,1485,1494,1467,1450,1442,1467,1497,1520,1521,1523,1534,1539,1522,1504,1482,1464,1453,1454,1441,1419,1397,1377,1357,1338,1320,1312,1314,1327,1349,1377,1406,1437,1462,1482,1492,1494,1500,1513,1522,1530,1537,1548,1558,1559,1559,1563,1577,1580,1580,1581,1588,1598,1610,1619,1620,1620,1619,1609,1601,1600,1600,1600,1600,1600,1604,1608,1618,1629,1640,1661,1676,1683,1701,1718,1729,1739,1750,1766,1795,1829,1870,1909,1919,1891,1845,1791,1736,1688,1642,1590,1531,1468,1407,1356,1324,1310,1288,1257,1218,1178,1139,1102,1074,1051,1033,1012,989,971,960,950,940,920,902,899,901,911,922,938,943,956,969,989,995,995,988,976,972,979,1009,1047,1088,1128,1165,1195,1217,1230,1239,1244,1247,1262,1291,1324,1358,1395,1434,1469,1497
388,391,398,396,396,398,399,400,414,431,450,459,466,468,461,457,451,461,477,480,480,484,477,462,455,455,460,479,496,499,500,505,519,536,550,560,567,572,576,579,576,569,560,548,540,538,522,525,546,522,542,559,553,544,540,539,536,530,524,520,517,513,509,507,507,510,515,519,520,520,520,526,530,532,531,530,527,519,509,500,492,485,479,468,464,465,471,479,488,501,518,532,537,523,514,510,508,504,497,483,470,458,445,440,445,458,466,473,480,491,499,515,531,549,560,561,550,538,519,500,489,482,479,479,481,484,489,494,499,504,513,521,538,550,559,561,567,581,601,624,651,675,684,698,700,698,682,676,662,658,678,697,696,671,644,640,663,698,730,755,779,796,794,773,768,796,829,855,874,873,886,916,956,999,1040,1073,1091,1101,1098,1070,1031,986,947,924,916,921,921,919,900,869,839,820,825,845,857,856,841,822,802,782,777,789,814,838,857,867,875,877,863,853,840,825,801,788,780,773,770,769,770,770,769,767,769,770,771,770,768,765,763,760,758,759,761,763,765,765,763,759,754,747,740,735,731,728,726,725,723,722,722,722,722,721,719,716,711,700,699,699,699,699,698,697,696,696,696,696,697,697,697,697,696,695,694,694,693,693,693,694,694,695,696,697,697,698,698,699,699,700,701,702,703,704,705,707,708,711,713,715,718,721,723,725,727,730,732,735,737,740,747,754,760,767,774,779,783,783,781,780,779,780,788,800,817,819,830,839,855,873,893,908,925,941,948,945,935,933,954,977,999,1023,1054,1086,1109,1117,1121,1126,1134,1143,1149,1157,1171,1184,1190,1188,1198,1217,1237,1264,1302,1306,1342,1370,1400,1428,1453,1457,1441,1419,1401,1390,1384,1381,1382,1379,1377,1386,1374,1350,1338,1328,1316,1289,1250,1206,1162,1117,1080,1048,1022,1009,999,987,979,969,961,957,939,927,926,930,939,943,944,937,919,902,895,883,879,882,896,898,902,920,943,972,999,1018,1020,1020,1016,1012,1009,1001,997,989,980,973,959,945,938,923,913,902,895,882,867,860,859,849,840,837,837,839,826,829,832,822,819,814,808,803,800,798,794,790,786,783,781,779,778,776,774,774,775,779,788,802,821,842,865,877,862,848,824,808,800,801,804,805,805,806,800,795,795,799,800,805,809,813,815,817,820,828,836,840,845,838,826,817,801,796,799,803,807,812,819,827,840,856,866,879,893,901,918,921,933,953,987,1019,1047,1069,1096,1134,1176,1225,1284,1354,1430,1498,1551,1592,1616,1619,1621,1620,1626,1631,1642,1660,1686,1722,1759,1780,1780,1759,1735,1730,1732,1726,1725,1730,1733,1731,1718,1701,1683,1667,1646,1618,1590,1562,1544,1523,1516,1498,1488,1471,1459,1458,1485,1522,1549,1546,1540,1540,1536,1511,1483,1460,1441,1426,1427,1416,1398,1379,1359,1341,1328,1319,1314,1320,1339,1366,1398,1430,1460,1482,1497,1500,1502,1517,1534,1548,1551,1553,1564,1577,1579,1579,1582,1597,1600,1600,1600,1601,1605,1619,1627,1627,1626,1621,1620,1618,1619,1619,1619,1618,1618,1617,1608,1612,1619,1629,1644,1669,1689,1705,1720,1738,1748,1760,1785,1818,1855,1898,1934,1939,1914,1867,1816,1769,1721,1668,1603,1527,1454,1389,1336,1301,1279,1255,1224,1188,1155,1124,1095,1068,1057,1041,1028,1010,983,970,959,946,937,918,907,905,910,919,929,937,942,956,962,962,961,960,958,958,963,988,1021,1056,1091,1124,1152,1171,1183,1194,1204,1218,1241,1273,1313,1353,1390,1427,1456,1481
395,399,405,401,399,397,398,400,409,423,437,442,450,457,447,440,439,448,461,470,474,477,463,454,453,459,465,474,481,489,495,502,521,540,558,567,573,577,580,582,579,571,560,547,539,531,519,521,535,540,556,564,559,552,548,544,539,534,528,523,519,514,510,509,510,514,520,524,526,529,531,539,540,539,535,533,530,520,511,500,495,489,480,473,469,471,479,490,502,520,540,557,557,540,523,514,510,507,502,497,479,460,447,441,448,460,470,479,487,506,512,522,542,562,578,577,560,540,520,502,492,484,479,479,482,484,488,492,496,501,518,527,540,558,571,578,580,588,602,620,641,661,673,684,697,697,687,684,679,680,692,700,699,682,660,651,661,687,716,738,756,762,760,746,757,785,813,831,843,854,889,931,971,1008,1046,1077,1099,1114,1117,1090,1050,1008,976,956,951,952,943,934,906,870,843,834,853,874,881,878,861,841,819,797,779,780,799,820,842,863,881,886,877,860,840,821,800,788,780,776,776,779,779,775,774,775,773,774,775,773,771,769,767,763,760,760,761,762,762,761,761,759,754,749,743,739,736,732,730,727,725,723,722,721,720,720,718,714,709,703,702,702,702,701,700,698,697,698,698,698,698,698,698,698,698,697,696,695,694,694,694,694,694,695,696,696,697,698,698,699,699,699,700,701,702,704,705,706,708,710,713,717,719,720,722,724,727,729,732,736,739,743,750,759,765,771,779,782,782,781,780,779,779,780,786,794,803,817,829,828,834,850,869,878,888,899,907,908,903,906,930,956,977,998,1018,1041,1058,1065,1072,1088,1105,1119,1132,1139,1141,1152,1161,1172,1183,1211,1244,1281,1327,1376,1385,1412,1435,1454,1460,1460,1445,1420,1398,1381,1379,1376,1371,1357,1350,1353,1337,1315,1308,1311,1293,1258,1215,1176,1139,1100,1066,1042,1022,1016,1018,1009,997,981,972,959,942,940,939,940,944,943,938,923,912,903,895,880,880,896,906,912,919,933,952,979,1000,1018,1019,1015,1007,1000,998,989,981,980,977,973,958,941,940,938,930,920,910,897,880,871,859,846,839,837,840,845,842,845,846,838,828,819,810,802,799,797,793,789,786,784,782,781,779,778,777,776,776,780,787,798,808,823,844,860,858,849,832,818,808,806,807,809,813,819,817,805,800,801,803,806,811,816,818,819,821,832,840,846,852,852,847,834,810,797,798,803,809,819,828,841,860,876,880,888,899,908,920,923,938,958,988,1019,1047,1070,1094,1129,1170,1216,1273,1342,1416,1483,1535,1577,1606,1616,1626,1632,1641,1643,1656,1672,1699,1740,1778,1801,1805,1785,1765,1772,1774,1769,1761,1760,1761,1754,1738,1717,1695,1676,1656,1631,1606,1582,1558,1540,1535,1520,1502,1483,1464,1459,1486,1527,1560,1569,1558,1542,1525,1495,1467,1443,1421,1402,1397,1386,1372,1359,1342,1330,1320,1317,1315,1322,1347,1379,1413,1446,1475,1496,1504,1511,1521,1540,1561,1575,1577,1573,1579,1588,1592,1599,1604,1617,1620,1624,1626,1627,1631,1638,1640,1640,1640,1639,1638,1632,1630,1630,1630,1630,1629,1627,1619,1612,1614,1620,1636,1658,1680,1707,1720,1738,1753,1766,1796,1833,1871,1908,1924,1928,1897,1850,1801,1758,1716,1667,1601,1527,1458,1395,1341,1297,1265,1235,1201,1169,1148,1128,1107,1085,1064,1051,1038,1016,984,960,956,947,938,920,911,907,909,914,920,927,932,939,940,940,940,944,947,951,958,967,993,1025,1058,1088,1112,1129,1141,1154,1173,1196,1229,1266,1309,1350,1388,1420,1446,1475
400,409,419,418,409,400,399,399,403,410,419,421,425,436,430,421,426,441,459,465,466,461,457,448,451,459,470,479,486,492,499,516,530,542,559,567,574,579,582,583,579,569,557,541,534,526,519,522,545,563,577,575,568,561,559,552,545,539,533,527,519,514,511,511,514,520,527,531,534,539,540,546,548,546,541,540,539,530,519,508,499,487,479,473,471,477,488,504,520,541,562,577,568,556,537,520,512,507,500,491,477,459,447,443,449,459,470,480,500,510,520,537,557,577,590,587,567,542,526,516,500,490,480,478,480,483,487,491,495,501,519,528,541,560,579,587,592,602,617,629,641,658,665,670,676,672,670,678,679,687,699,704,705,698,680,662,659,670,690,707,719,721,724,722,743,768,790,812,836,868,908,945,976,1002,1030,1058,1083,1107,1118,1107,1078,1044,1017,1001,991,983,964,942,909,872,857,865,887,900,900,893,878,858,835,806,781,780,793,812,842,872,896,893,879,860,840,820,800,788,782,779,780,784,784,780,779,780,787,790,779,775,774,774,773,769,764,763,763,763,762,759,759,758,755,751,747,744,740,736,733,730,727,724,722,720,719,719,718,715,711,708,706,705,704,703,701,699,698,699,699,699,699,699,700,699,699,698,697,696,695,695,694,694,695,695,696,697,698,699,699,700,699,700,700,701,703,704,705,707,708,710,715,717,718,720,721,724,726,729,732,736,740,744,749,755,760,768,779,780,780,779,779,779,781,782,788,794,797,800,802,807,830,829,852,857,854,863,872,885,893,900,914,937,957,977,989,1007,1025,1036,1046,1073,1102,1126,1143,1156,1159,1162,1170,1180,1183,1210,1246,1288,1339,1390,1428,1441,1458,1457,1445,1444,1425,1402,1380,1362,1354,1343,1333,1321,1320,1317,1302,1286,1280,1279,1257,1220,1181,1149,1121,1090,1068,1055,1038,1021,1021,1019,1005,989,978,967,961,964,960,958,951,944,931,916,905,898,882,879,885,899,907,919,928,939,957,977,990,1002,1009,1008,1000,993,988,980,977,978,980,978,963,953,958,958,948,938,920,900,878,861,850,840,836,842,856,860,860,859,858,841,829,820,812,800,797,795,791,788,786,783,782,781,780,779,778,777,777,779,784,791,800,820,842,859,858,848,837,820,812,811,811,813,820,830,837,831,809,804,804,807,814,819,820,819,820,838,848,854,859,859,854,838,812,798,799,804,811,822,840,862,886,903,901,905,916,923,937,945,950,965,991,1019,1048,1077,1109,1142,1183,1230,1284,1349,1418,1474,1518,1556,1590,1615,1631,1647,1665,1662,1669,1684,1712,1750,1790,1817,1821,1807,1785,1795,1788,1792,1793,1783,1775,1766,1740,1710,1682,1662,1649,1638,1622,1602,1580,1560,1558,1546,1521,1493,1470,1460,1486,1525,1563,1577,1567,1542,1522,1501,1477,1452,1424,1401,1382,1364,1356,1349,1339,1329,1319,1319,1320,1327,1349,1381,1413,1442,1466,1485,1503,1522,1539,1558,1577,1572,1582,1581,1589,1599,1603,1619,1630,1639,1641,1643,1644,1644,1655,1659,1660,1660,1660,1658,1649,1640,1639,1640,1640,1640,1640,1639,1629,1619,1615,1616,1622,1639,1659,1680,1714,1733,1757,1779,1809,1841,1875,1907,1912,1888,1849,1804,1762,1723,1687,1644,1591,1531,1473,1422,1373,1325,1284,1247,1212,1182,1161,1143,1123,1099,1077,1058,1038,1014,966,961,958,942,931,920,914,910,909,911,914,919,923,929,932,932,934,939,942,946,952,959,968,997,1029,1057,1077,1092,1107,1124,1150,1185,1223,1259,1304,1346,1385,1419,1451,1485
412,422,437,437,422,410,403,400,400,404,409,409,412,419,419,417,421,439,458,462,459,452,445,440,450,462,479,490,499,499,501,519,537,545,552,559,568,576,580,579,573,561,548,539,532,527,525,532,553,576,581,580,576,578,570,561,552,545,539,531,520,515,513,514,520,530,539,540,541,546,549,556,560,560,558,554,547,538,522,513,499,481,476,473,474,482,498,515,539,561,579,587,579,561,540,521,512,505,496,479,462,452,445,446,452,460,472,490,499,509,520,540,562,584,599,593,569,542,527,519,508,498,486,480,480,483,488,493,499,506,519,527,540,560,579,588,600,617,630,639,645,651,651,649,648,643,644,657,663,678,691,700,706,710,702,681,664,660,672,680,685,689,700,703,728,754,773,800,837,875,910,940,964,982,1000,1024,1052,1083,1108,1113,1109,1087,1064,1047,1030,1015,990,959,920,883,868,888,907,918,914,900,881,861,838,810,789,787,800,822,852,884,900,890,874,859,840,819,800,789,784,784,786,790,792,790,790,790,795,799,790,776,775,778,779,775,770,768,769,769,766,761,759,757,756,754,753,749,744,740,736,732,729,725,722,719,719,719,718,717,714,712,710,709,707,705,702,700,699,700,700,699,700,700,700,700,700,699,699,698,696,696,695,695,695,696,696,697,698,699,700,701,701,701,701,702,704,706,707,709,710,713,715,716,718,719,721,723,726,729,732,736,739,743,747,751,755,760,770,775,778,779,780,782,784,787,793,799,799,796,800,812,820,820,836,840,837,842,860,879,897,909,917,931,946,967,984,1001,1022,1042,1064,1095,1128,1158,1178,1194,1200,1197,1196,1195,1200,1219,1246,1284,1333,1379,1411,1421,1427,1446,1432,1415,1397,1379,1359,1337,1318,1298,1279,1266,1266,1266,1263,1255,1247,1237,1214,1181,1151,1125,1103,1081,1065,1053,1049,1027,1020,1015,1003,991,989,994,990,992,984,974,961,949,933,914,900,895,888,887,891,896,901,916,925,931,942,958,971,986,998,1002,999,988,978,972,977,980,982,982,977,964,967,960,950,937,917,895,871,857,849,843,842,858,876,880,878,863,855,840,829,823,819,807,799,795,791,787,785,782,781,780,780,780,779,779,778,780,783,789,801,827,854,866,865,857,846,822,816,819,820,821,828,842,857,841,822,811,806,808,814,819,819,819,821,839,853,860,863,860,857,837,812,799,802,810,820,837,861,888,915,932,929,936,942,945,956,958,963,983,1002,1023,1050,1081,1118,1159,1206,1257,1313,1374,1435,1480,1515,1542,1572,1600,1628,1658,1665,1677,1683,1699,1723,1755,1790,1817,1823,1809,1796,1799,1800,1803,1805,1797,1779,1759,1726,1693,1665,1651,1640,1640,1637,1621,1603,1590,1588,1574,1544,1511,1482,1461,1481,1521,1562,1578,1571,1546,1531,1517,1497,1472,1445,1418,1396,1376,1362,1350,1340,1330,1320,1324,1323,1327,1341,1364,1394,1424,1454,1486,1515,1538,1553,1562,1579,1576,1581,1590,1600,1610,1622,1641,1656,1659,1659,1659,1659,1660,1668,1673,1679,1680,1680,1677,1662,1650,1648,1651,1659,1659,1656,1652,1641,1628,1620,1619,1620,1627,1640,1660,1683,1707,1754,1779,1809,1838,1863,1882,1876,1840,1793,1749,1711,1675,1642,1606,1564,1520,1478,1439,1400,1356,1311,1271,1236,1203,1176,1152,1125,1097,1073,1048,1005,979,960,959,958,947,939,927,919,913,912,912,913,916,920,927,932,933,934,936,940,945,950,954,960,978,1006,1030,1046,1061,1079,1099,1127,1166,1206,1247,1293,1335,1374,1414,1451,1490
423,436,448,450,438,422,410,403,400,399,400,400,404,409,414,419,424,439,452,458,451,444,439,442,460,477,490,500,509,510,511,519,529,538,540,543,557,568,574,575,570,559,541,537,533,531,533,540,559,578,584,586,580,585,581,576,562,553,546,539,526,519,517,520,529,539,547,551,558,560,561,570,578,578,571,560,550,539,528,518,500,485,480,479,482,496,506,522,549,576,587,588,578,558,537,519,508,498,482,463,453,448,446,450,459,479,485,492,499,508,520,541,571,597,606,598,571,542,525,519,510,500,491,485,484,486,489,494,500,506,514,521,538,557,571,581,598,617,630,636,639,637,626,621,620,619,622,637,649,662,678,690,702,719,718,706,689,674,679,681,690,701,717,722,739,753,767,794,827,859,891,920,940,953,962,983,1014,1052,1089,1119,1135,1122,1103,1083,1061,1041,1015,981,941,906,896,912,920,922,919,901,881,860,837,811,795,795,810,835,859,883,899,882,863,851,837,817,799,790,787,788,792,796,799,799,799,799,800,802,799,787,777,779,781,779,775,775,780,781,780,776,761,759,760,760,759,754,749,744,739,735,731,728,724,720,719,720,720,719,717,716,714,713,711,708,705,703,702,702,701,701,701,702,702,701,701,700,699,698,697,696,696,696,696,696,697,697,698,700,701,702,702,703,703,704,706,709,712,713,714,715,716,717,718,719,721,723,726,729,733,737,740,745,748,752,757,761,769,774,779,784,788,790,791,793,800,809,807,800,807,819,820,827,839,840,841,855,867,882,901,917,928,943,963,980,999,1021,1047,1072,1098,1130,1166,1200,1224,1240,1243,1238,1234,1230,1233,1244,1263,1288,1325,1359,1379,1388,1398,1392,1401,1382,1367,1356,1336,1309,1281,1253,1228,1210,1206,1207,1214,1212,1203,1192,1173,1149,1125,1105,1095,1079,1066,1058,1041,1021,1017,1012,1003,999,990,989,1012,1025,1018,996,976,957,933,911,900,899,899,899,899,899,899,902,918,920,928,940,954,968,980,989,987,977,962,961,978,982,982,981,979,977,962,951,938,921,902,882,869,861,861,860,861,876,891,899,897,880,861,842,832,825,820,811,800,795,791,787,783,781,780,779,779,779,779,779,779,780,783,789,801,827,856,870,871,859,840,820,819,828,837,839,844,879,886,868,842,822,812,810,813,818,820,826,830,840,858,870,869,859,843,829,816,800,816,819,831,853,884,916,943,963,965,978,981,977,973,970,980,999,1019,1039,1060,1087,1126,1172,1224,1282,1346,1412,1471,1513,1536,1544,1559,1580,1606,1640,1668,1684,1698,1712,1732,1759,1783,1803,1813,1795,1786,1792,1799,1800,1798,1782,1760,1731,1704,1681,1660,1649,1640,1642,1644,1637,1623,1619,1616,1598,1565,1529,1498,1478,1480,1508,1550,1577,1578,1558,1539,1524,1510,1482,1452,1424,1401,1384,1376,1360,1349,1340,1331,1329,1325,1326,1334,1351,1380,1412,1443,1478,1514,1539,1556,1563,1568,1568,1574,1595,1607,1620,1638,1658,1667,1670,1670,1670,1671,1672,1679,1683,1697,1701,1701,1697,1680,1663,1660,1663,1677,1674,1670,1669,1660,1642,1630,1626,1622,1620,1628,1641,1660,1683,1705,1763,1794,1821,1842,1850,1830,1786,1736,1691,1655,1622,1590,1556,1519,1481,1446,1417,1389,1353,1315,1280,1244,1205,1169,1137,1106,1080,1055,1021,1000,979,960,958,959,951,940,932,920,916,920,920,920,920,925,932,939,940,940,941,946,949,954,959,962,972,999,1014,1023,1040,1060,1081,1106,1142,1184,1227,1273,1314,1354,1396,1440,1487
439,444,455,459,451,437,420,410,403,400,398,397,399,403,409,415,420,429,438,441,440,438,440,456,476,488,499,512,519,519,518,518,519,521,526,531,542,557,567,568,566,559,545,539,536,536,539,545,557,571,582,589,592,599,598,590,578,562,552,539,527,520,520,526,538,546,553,560,570,578,580,585,591,590,579,563,552,540,531,519,501,492,489,492,498,503,509,522,549,579,583,578,561,540,522,511,500,490,477,460,451,448,448,452,469,479,487,493,499,507,520,541,571,598,607,598,570,540,520,516,513,508,500,492,489,489,492,495,500,504,511,519,529,542,558,570,582,601,617,621,621,617,607,600,599,600,608,621,637,649,662,679,699,718,723,716,703,703,706,705,717,725,732,749,766,779,789,806,824,848,874,898,915,921,927,947,981,1023,1069,1114,1140,1139,1123,1105,1080,1058,1030,997,962,932,920,925,927,925,917,898,877,855,830,810,799,800,818,839,860,880,889,877,859,844,824,803,794,790,790,793,796,799,801,802,803,802,802,802,799,793,787,787,783,782,780,783,797,798,790,780,770,767,769,769,767,760,754,746,740,736,735,733,730,725,723,722,722,722,720,719,718,716,714,712,709,707,705,705,704,704,704,703,703,703,702,701,700,698,697,697,696,696,696,697,697,698,698,700,701,703,704,704,705,707,709,714,721,720,720,719,718,718,719,720,721,723,726,729,734,739,744,751,754,761,771,778,780,780,781,790,799,799,799,800,810,819,819,811,819,827,830,839,847,850,857,868,879,896,909,923,941,961,981,1000,1022,1050,1080,1105,1133,1166,1203,1240,1272,1290,1288,1280,1278,1277,1281,1288,1298,1310,1334,1351,1360,1363,1380,1380,1379,1366,1347,1340,1322,1292,1260,1224,1197,1175,1167,1159,1166,1166,1160,1152,1140,1123,1103,1089,1080,1069,1060,1052,1039,1021,1019,1013,1000,999,1002,1014,1040,1064,1056,1025,989,958,929,907,900,905,910,910,908,907,909,917,920,916,920,930,941,955,959,963,969,961,956,960,972,979,980,979,977,964,950,937,921,908,897,880,879,880,888,887,881,889,901,909,909,898,880,859,842,832,825,819,807,799,792,786,783,780,778,778,778,778,779,780,780,782,786,792,801,821,849,872,880,863,840,823,822,839,854,864,882,902,914,896,866,840,821,814,815,820,831,840,837,841,860,879,876,860,839,821,813,807,819,831,841,870,908,944,977,1003,1008,1022,1025,1012,993,982,997,1019,1039,1059,1078,1101,1136,1182,1237,1302,1373,1446,1509,1550,1569,1567,1561,1568,1583,1610,1643,1670,1693,1711,1732,1758,1778,1789,1787,1767,1763,1775,1787,1789,1780,1759,1733,1707,1692,1678,1660,1650,1645,1647,1651,1648,1642,1640,1630,1609,1574,1537,1507,1483,1477,1489,1527,1563,1562,1547,1527,1508,1487,1459,1433,1413,1397,1381,1375,1367,1360,1357,1342,1334,1328,1326,1331,1344,1372,1405,1433,1461,1494,1519,1534,1547,1548,1547,1565,1587,1601,1619,1640,1658,1665,1671,1673,1675,1677,1680,1691,1700,1713,1719,1719,1712,1698,1683,1679,1679,1683,1680,1679,1681,1677,1658,1641,1633,1626,1621,1623,1631,1642,1660,1680,1703,1763,1793,1812,1807,1777,1731,1681,1636,1600,1571,1540,1504,1464,1426,1393,1370,1350,1323,1293,1262,1227,1187,1149,1116,1088,1074,1042,1027,1006,987,964,958,959,954,946,938,920,922,936,939,940,938,935,939,946,951,958,959,959,957,959,968,981,1000,1017,1021,1026,1040,1058,1077,1100,1130,1168,1203,1250,1293,1330,1371,1418,1468
447,452,459,462,459,443,430,419,411,404,399,396,397,400,406,412,416,420,421,431,436,439,443,460,479,490,501,518,524,523,519,515,513,515,519,524,530,543,558,560,559,554,544,540,539,540,541,549,557,569,580,592,600,607,607,600,591,577,558,540,529,523,523,529,540,551,560,570,581,589,592,595,599,599,589,577,559,547,538,523,509,499,496,499,503,505,509,520,541,563,570,562,540,522,512,505,496,481,469,459,451,449,450,460,469,479,488,495,500,507,519,537,566,590,599,591,564,539,520,516,519,519,510,500,495,493,494,496,499,502,507,513,520,529,541,556,562,580,598,600,599,591,585,579,580,588,598,609,621,636,650,668,687,703,718,721,715,713,723,726,738,739,745,768,794,814,826,834,845,862,877,881,891,898,910,933,968,1011,1060,1108,1139,1139,1120,1100,1078,1057,1030,1002,976,949,935,931,927,918,901,882,863,842,821,808,802,805,820,840,860,875,879,863,852,838,813,798,792,792,794,800,800,799,800,802,803,803,801,799,797,796,794,793,794,789,792,798,801,803,798,780,779,779,783,781,778,768,759,748,740,738,739,740,739,733,730,727,725,724,722,721,720,719,717,716,714,711,709,708,707,707,706,706,705,704,702,701,699,698,698,697,697,697,697,697,697,698,698,700,701,703,705,706,707,709,714,731,738,733,728,724,720,719,720,720,721,723,726,729,734,740,746,754,763,781,795,799,799,799,798,800,805,807,808,811,819,826,827,821,829,838,840,849,858,861,868,879,888,900,917,936,956,977,999,1022,1051,1081,1108,1136,1167,1199,1234,1275,1315,1340,1340,1330,1326,1329,1337,1341,1336,1330,1339,1355,1369,1382,1395,1381,1377,1373,1373,1351,1335,1306,1272,1230,1192,1163,1173,1144,1133,1127,1122,1120,1117,1102,1089,1079,1071,1060,1051,1046,1039,1028,1023,1016,1000,1003,1011,1028,1053,1072,1074,1040,994,954,921,900,899,910,919,920,920,920,923,936,936,922,920,928,939,940,940,941,952,954,956,960,967,972,972,969,961,949,938,922,912,900,891,880,887,901,916,915,902,902,917,920,919,912,897,879,860,843,831,820,812,800,791,786,782,779,778,777,778,778,779,780,781,784,790,799,809,823,851,880,897,879,850,833,839,857,876,901,913,932,942,921,887,857,836,820,816,820,834,855,846,850,860,878,879,860,839,821,817,814,821,838,862,883,928,973,1016,1048,1054,1063,1063,1042,1017,1002,1017,1039,1059,1077,1094,1116,1148,1189,1243,1308,1383,1461,1530,1575,1597,1596,1580,1571,1574,1586,1614,1641,1668,1695,1724,1749,1763,1775,1762,1743,1742,1755,1771,1777,1764,1743,1720,1701,1690,1678,1661,1653,1652,1654,1659,1660,1659,1656,1634,1601,1567,1537,1515,1496,1481,1480,1503,1537,1547,1536,1510,1486,1462,1435,1415,1399,1386,1379,1376,1371,1368,1366,1357,1340,1330,1327,1333,1349,1374,1397,1419,1439,1463,1489,1506,1518,1523,1533,1553,1578,1595,1612,1632,1649,1656,1665,1669,1673,1679,1688,1699,1708,1719,1724,1725,1719,1708,1698,1687,1685,1685,1683,1680,1679,1673,1660,1649,1639,1629,1623,1623,1629,1639,1648,1661,1678,1695,1712,1771,1759,1724,1678,1630,1587,1551,1525,1494,1458,1417,1377,1342,1321,1306,1288,1264,1236,1203,1165,1136,1116,1082,1070,1057,1040,1023,1000,979,960,959,955,947,938,921,935,946,954,958,951,940,940,952,959,961,960,960,960,960,976,1004,1021,1037,1040,1041,1051,1062,1081,1102,1129,1161,1195,1240,1283,1321,1360,1408,1460
