597,591,578,562,559,556,543,556,559,560,560,555,541,539,542,558,568,573,577,570,560,556,553,552,556,559,553,560,571,575,579,589,599,608,619,621,619,614,608,598,587,585,587,598,603,617,623,628,632,636,640,642,644,643,640,638,639,639,640,648,650,649,649,647,640,639,636,635,635,638,639,640,641,643,645,650,653,659,661,660,655,653,651,651,651,653,656,660,669,680,690,699,705,709,719,724,720,720,720,720,720,718,709,700,692,685,680,677,678,679,677,677,677,675,674,673,672,671,671,670,669,667,665,663,662,661,662,662,662,662,661,661,660,660,660,660,659,658,659,657,655,655,654,655,659,659,656,656,656,655,653,651,649,647,645,643,642,641,640,639,639,639,639,640,640,640,640,641,641,641,641,641,641,641,640,640,640,641,642,643,645,646,647,648,649,649,649,649,650,650,650,650,650,650,649,649,649,649,650,649,650,650,650,650,651,652,653,654,655,657,658,658,659,659,659,660,660,660,661,661,662,662,663,663,664,664,664,665,666,666,667,668,669,669,670,671,672,673,675,677,679,681,684,688,693,700,708,716,721,738,751,759,761,770,782,798,804,811,821,837,839,839,840,837,822,800,799,799,794,800,819,840,860,880,897,903,909,910,907,898,881,862,843,823,800,778,761,753,745,739,735,730,724,720,717,716,716,716,718,720,722,725,728,731,735,739,744,747,740,737,742,746,751,742,740,739,733,729,726,724,723,722,722,722,724,725,726,727,728,729,731,733,735,740,747,756,760,759,755,760,758,745,740,739,739,739,740,740,741,743,745,747,748,750,752,754,755,757,758,759,760,761,763,765,768,769,770,769,768,769,772,775,778,779,780,780,783,786,790,795,799,802,805,809,813,821,839,864,901,940,984,1019,1030,1028,1035,1046,1054,1046,1042,1053,1065,1074,1080,1089,1092,1081,1066,1063,1073,1082,1077,1059,1030,1002,988,1010,1047,1080,1091,1100,1108,1120,1130,1139,1156,1185,1216,1238,1239,1218,1179,1137,1101,1070,1037,1004,973,944,922,911,899,895,897,900,900,900,899,891,889,890,895,899,904,910,915,918,919,919,921,930,937,934,941,959,979,991,994,983,989,998,999,1000,1000,1002,1007,1021,1031,1027,1017,1016,1023,1021,1023,1050,1096,1144,1189,1228,1251,1258,1250,1239,1231,1219,1205,1192,1203,1228,1257,1286,1321,1361,1404,1440,1451,1440,1419,1395,1375,1357,1345,1335,1332,1339,1358,1377,1397,1421,1449,1475,1482,1488,1490,1488,1491,1510,1510,1477,1437,1402,1372,1344,1320,1296,1266,1230,1193,1158,1146,1141,1158,1164,1158,1145,1126,1098,1083,1093,1104,1082,1057,1040,1031,1026,1014,1009,998,980,958,938,924,918,920,924,936,943,958,982,1005,1025,1052,1084,1111,1124,1126,1138,1138,1136,1132,1130,1133,1138,1133,1133,1122,1125,1130,1141,1160,1172,1179,1180,1181,1198,1211,1223,1239,1237,1228,1218,1199,1181,1171,1162,1162,1171,1196,1214,1232,1256,1277,1279,1263,1240,1220,1210,1200,1213,1230,1252,1271,1280,1280,1288,1302,1307,1296,1280,1280,1298,1301,1288,1265,1253,1239,1222,1216,1207,1198,1192,1190,1190,1179,1163,1150,1139,1134,1132,1134,1140,1146,1154,1160,1169,1176,1180,1181,1180,1182,1177,1161,1155,1155,1157,1160,1172,1179,1182,1183,1182,1179,1175,1173,1173,1172,1173,1174,1177,1179,1180,1183,1191,1206,1213,1220,1225,1230,1239,1243,1243,1248,1259,1264,1258,1248,1239,1236,1242,1258,1262,1272
563,561,556,542,540,536,524,536,540,541,540,535,522,533,554,562,564,560,559,552,542,545,547,547,547,545,541,556,568,575,581,598,603,607,611,607,601,602,596,582,582,589,598,610,618,623,623,625,629,635,639,642,643,643,639,635,633,633,634,639,640,640,640,639,635,634,633,632,633,635,637,638,639,639,640,643,646,650,651,651,650,651,651,652,654,655,659,664,671,679,686,693,699,701,711,718,713,710,709,708,706,701,699,693,687,683,679,676,676,676,675,674,672,672,671,670,669,668,668,667,666,664,662,661,660,660,660,660,661,660,660,659,658,656,656,655,656,655,656,654,653,652,652,652,654,654,652,652,652,652,650,649,648,647,645,643,642,641,640,640,640,640,640,640,640,641,641,641,641,641,641,641,641,641,641,641,641,642,643,644,645,647,648,649,649,649,650,650,649,650,650,650,650,650,650,649,650,650,650,650,650,650,650,650,651,652,653,654,655,656,657,658,658,659,659,660,660,660,661,661,662,662,663,663,663,663,664,664,665,666,666,667,668,669,669,670,671,673,674,676,678,680,683,687,693,700,708,716,722,740,749,760,770,779,788,796,800,808,820,837,842,848,853,850,839,823,819,816,802,806,819,839,861,886,904,919,936,940,938,924,906,881,859,837,815,789,771,759,751,745,739,734,728,723,719,717,716,716,717,720,722,726,729,733,737,740,747,751,747,742,752,756,757,758,753,741,735,731,727,724,723,722,722,723,724,726,726,727,728,729,731,733,735,739,744,750,754,756,760,777,779,769,760,751,745,742,741,741,742,744,745,747,749,751,752,753,755,756,758,759,759,760,761,764,765,767,767,767,767,767,771,774,777,779,779,780,783,787,790,794,797,800,805,813,820,828,844,882,913,959,1012,1055,1073,1072,1073,1086,1096,1092,1091,1104,1119,1128,1136,1147,1148,1133,1110,1106,1120,1130,1121,1100,1068,1036,1016,1026,1052,1081,1098,1105,1114,1124,1142,1162,1184,1205,1225,1234,1223,1193,1151,1110,1077,1049,1025,995,966,942,927,917,900,896,899,900,900,900,900,900,899,896,899,902,907,914,920,927,934,939,940,940,944,945,959,982,1008,1025,1024,1009,1010,1021,1033,1035,1030,1027,1054,1072,1082,1074,1061,1066,1076,1075,1069,1087,1129,1181,1229,1262,1274,1269,1259,1248,1239,1225,1218,1211,1223,1251,1283,1318,1363,1413,1458,1488,1483,1467,1447,1420,1393,1386,1374,1355,1342,1341,1359,1380,1406,1436,1468,1495,1501,1508,1516,1514,1504,1519,1500,1469,1441,1413,1383,1355,1326,1294,1260,1228,1193,1157,1131,1122,1127,1130,1129,1124,1106,1080,1063,1072,1077,1060,1040,1023,1011,1001,992,983,977,964,942,924,920,929,943,952,966,973,987,1013,1040,1063,1091,1119,1141,1154,1151,1159,1159,1153,1155,1142,1141,1145,1140,1142,1139,1138,1134,1141,1159,1165,1171,1174,1180,1199,1220,1237,1244,1240,1232,1220,1208,1198,1191,1187,1174,1162,1179,1198,1222,1248,1272,1280,1269,1241,1221,1213,1208,1212,1221,1241,1258,1268,1277,1293,1316,1312,1310,1293,1281,1299,1298,1286,1262,1253,1246,1236,1222,1220,1219,1215,1207,1201,1193,1176,1158,1141,1135,1133,1135,1139,1145,1152,1159,1168,1174,1179,1181,1182,1182,1179,1168,1160,1160,1159,1161,1170,1179,1182,1182,1184,1185,1181,1180,1179,1175,1174,1175,1176,1177,1177,1180,1187,1200,1209,1219,1219,1221,1237,1239,1240,1246,1255,1259,1256,1247,1240,1242,1257,1271,1278,1280
540,540,536,523,524,520,515,521,529,529,526,516,509,539,558,560,558,548,541,538,534,539,542,542,542,539,538,549,567,579,588,599,600,600,597,584,582,590,581,578,587,598,610,619,624,623,620,620,624,630,636,639,640,639,635,630,626,626,629,631,632,632,633,633,631,630,630,630,631,633,634,635,637,637,637,639,642,644,645,647,649,652,654,655,659,660,664,668,673,677,680,685,689,692,699,701,700,699,699,699,699,695,692,687,683,679,676,674,673,672,672,669,669,669,669,668,667,667,666,665,664,662,661,660,659,659,659,659,660,659,658,658,656,654,653,653,653,653,653,652,651,650,650,650,651,650,649,649,650,649,648,648,647,646,645,643,642,641,641,640,640,640,640,641,641,641,641,642,642,642,642,642,642,642,642,642,642,643,644,645,646,647,648,649,650,650,650,650,650,650,650,650,650,650,650,650,650,650,650,650,650,650,650,651,651,652,653,654,655,656,657,658,658,659,659,660,660,660,661,661,661,662,662,662,663,663,663,664,664,665,666,666,667,668,669,670,670,672,673,675,677,680,683,687,693,700,711,722,733,730,740,751,762,777,787,791,794,800,810,822,833,846,859,860,857,843,840,836,821,819,822,838,854,873,896,919,941,958,961,951,927,899,870,841,817,792,777,762,759,751,745,739,733,728,723,720,718,717,718,720,722,726,730,735,739,743,751,759,759,759,762,765,768,768,760,749,740,734,729,724,722,722,722,724,725,726,726,727,727,729,730,732,734,737,740,744,747,750,755,764,779,781,777,761,751,746,743,743,744,745,747,748,750,751,753,754,755,756,757,758,758,759,761,762,764,765,766,766,767,768,769,775,777,779,781,782,784,787,790,793,795,799,806,819,830,842,879,902,932,975,1022,1063,1092,1087,1096,1100,1116,1119,1127,1140,1156,1159,1162,1178,1179,1172,1149,1141,1154,1158,1149,1129,1102,1072,1049,1042,1059,1080,1093,1101,1119,1138,1158,1178,1196,1210,1222,1224,1211,1183,1143,1104,1079,1059,1042,1016,984,957,937,918,902,900,906,911,917,911,911,917,910,901,900,905,912,920,928,933,940,951,957,954,961,969,981,1006,1035,1055,1056,1042,1036,1049,1065,1070,1067,1064,1076,1119,1127,1118,1109,1117,1126,1122,1113,1124,1163,1215,1258,1279,1278,1262,1252,1240,1231,1220,1218,1221,1242,1273,1308,1350,1400,1453,1498,1513,1500,1481,1466,1445,1417,1396,1394,1379,1368,1360,1366,1380,1405,1434,1467,1497,1511,1521,1532,1538,1549,1536,1510,1482,1460,1435,1404,1371,1341,1311,1277,1244,1211,1174,1139,1111,1101,1100,1101,1097,1083,1066,1054,1057,1057,1042,1029,1016,1000,988,977,969,960,951,938,920,927,945,964,981,998,1006,1017,1043,1067,1092,1122,1144,1159,1165,1167,1175,1179,1178,1178,1161,1159,1159,1152,1149,1149,1145,1142,1158,1177,1182,1180,1180,1185,1202,1228,1244,1250,1247,1238,1221,1213,1210,1211,1214,1204,1188,1181,1192,1224,1255,1278,1282,1267,1242,1227,1220,1219,1220,1226,1239,1246,1259,1272,1283,1304,1319,1319,1308,1292,1299,1293,1281,1268,1262,1259,1249,1240,1239,1239,1230,1221,1218,1207,1183,1160,1146,1139,1135,1136,1139,1144,1151,1159,1168,1175,1180,1183,1183,1181,1179,1172,1165,1169,1161,1161,1168,1175,1179,1180,1187,1195,1198,1193,1188,1180,1176,1176,1176,1175,1174,1176,1180,1190,1200,1207,1209,1212,1221,1228,1233,1240,1246,1249,1249,1247,1248,1257,1270,1282,1286,1278
528,527,520,514,517,512,510,514,519,519,515,500,512,539,558,554,543,528,520,519,519,524,535,538,539,539,542,558,573,580,587,595,597,588,579,570,569,576,577,581,597,608,619,623,625,623,619,617,620,625,631,634,634,632,627,623,620,621,622,625,626,627,627,628,627,627,627,628,629,630,632,633,634,635,636,638,639,641,642,645,650,655,659,660,667,669,672,674,676,677,678,679,680,684,687,688,688,690,690,691,691,690,687,684,680,676,673,671,669,669,667,667,667,667,667,667,667,666,666,665,664,662,659,658,658,657,657,658,658,658,657,656,654,653,652,651,651,651,651,651,650,650,650,649,649,648,648,648,648,648,647,647,646,645,644,643,642,642,641,641,641,641,641,641,642,642,642,642,643,643,643,643,643,643,643,643,643,644,644,645,646,648,649,649,650,650,650,650,650,650,650,650,650,650,650,650,650,650,650,651,651,651,651,651,652,652,653,654,655,656,657,657,658,659,659,659,660,660,660,661,661,661,662,662,662,662,663,663,664,664,665,666,667,667,668,669,669,670,672,674,677,680,683,687,693,700,710,719,712,720,730,738,749,762,777,780,784,790,801,814,820,832,854,861,863,860,860,858,844,840,840,842,851,862,882,908,936,961,979,976,952,918,880,846,821,799,783,778,776,762,752,747,740,733,729,724,719,717,718,720,722,725,730,735,739,743,751,760,764,766,769,774,780,780,770,759,749,739,730,725,722,722,723,725,727,727,726,726,726,727,729,731,733,735,737,740,742,745,750,760,777,783,781,768,756,749,746,745,746,747,748,750,751,752,753,754,754,755,756,757,758,759,760,761,762,764,765,766,767,768,770,775,777,780,782,783,786,788,790,791,793,795,800,817,837,857,886,914,942,973,1002,1030,1055,1058,1057,1064,1083,1098,1118,1136,1149,1150,1140,1152,1171,1178,1161,1159,1162,1165,1159,1141,1120,1097,1075,1060,1066,1079,1089,1100,1118,1138,1157,1172,1184,1201,1210,1209,1196,1170,1141,1113,1087,1067,1050,1027,992,961,939,921,918,918,919,920,925,921,921,925,920,917,911,912,919,930,939,940,949,959,965,967,984,995,1003,1027,1056,1079,1087,1076,1068,1082,1103,1110,1107,1106,1121,1167,1171,1163,1158,1165,1164,1151,1141,1153,1187,1230,1257,1262,1258,1243,1238,1230,1224,1218,1220,1230,1252,1284,1323,1367,1417,1468,1509,1518,1501,1482,1479,1467,1445,1428,1418,1402,1393,1381,1380,1381,1396,1417,1452,1488,1511,1531,1541,1559,1562,1549,1527,1504,1489,1462,1428,1393,1362,1336,1306,1272,1239,1206,1169,1133,1105,1094,1086,1076,1065,1050,1039,1036,1037,1027,1017,1001,989,978,962,959,951,945,939,931,939,957,978,998,1016,1025,1038,1058,1078,1108,1140,1158,1158,1159,1164,1178,1185,1187,1185,1180,1179,1177,1162,1156,1160,1155,1159,1177,1198,1208,1201,1192,1194,1211,1236,1249,1254,1252,1244,1230,1218,1216,1220,1224,1224,1215,1196,1199,1223,1252,1272,1278,1262,1248,1240,1239,1239,1238,1236,1236,1238,1253,1274,1284,1299,1312,1320,1318,1303,1299,1289,1280,1280,1286,1282,1266,1258,1254,1256,1243,1232,1226,1215,1188,1162,1150,1140,1136,1137,1139,1144,1150,1159,1171,1180,1188,1189,1185,1180,1177,1175,1179,1173,1165,1163,1165,1171,1176,1180,1189,1199,1201,1200,1199,1190,1180,1179,1176,1174,1174,1175,1179,1186,1191,1199,1200,1205,1212,1220,1228,1235,1239,1240,1242,1247,1252,1262,1281,1298,1288,1266
522,519,509,500,500,500,504,507,509,501,500,503,524,539,542,537,523,505,500,500,501,508,512,519,529,539,555,567,579,578,580,582,578,564,560,559,560,570,579,587,600,609,616,620,623,620,616,614,615,619,625,627,627,624,620,619,618,619,619,620,622,623,624,624,624,625,625,625,626,628,629,631,632,633,635,636,638,639,640,644,651,659,667,672,679,680,679,679,679,678,678,677,677,679,680,680,680,682,683,684,686,686,686,683,679,674,670,668,667,667,666,666,667,667,667,667,667,667,667,667,665,663,660,658,657,656,656,656,656,656,655,654,653,652,651,650,650,650,650,650,650,649,649,649,648,648,647,647,647,647,646,646,645,645,644,643,642,642,642,641,641,641,641,642,642,643,643,643,643,643,644,644,644,644,644,644,644,644,645,646,647,648,649,649,650,650,650,650,650,650,650,650,650,650,650,650,650,650,651,651,651,651,651,652,652,653,653,654,655,656,657,657,658,659,659,659,660,660,660,661,661,661,661,661,662,662,662,663,663,664,665,665,666,667,667,668,669,670,671,674,676,679,682,686,692,699,706,700,700,708,718,722,733,746,758,761,771,780,796,799,800,806,828,846,858,867,876,879,871,871,870,866,861,867,882,901,924,951,977,985,971,940,903,867,839,818,803,801,797,780,763,758,747,740,735,729,720,717,718,719,721,725,729,734,738,740,749,759,766,770,774,783,797,797,783,770,758,741,731,725,722,722,725,728,731,729,727,725,725,727,728,730,733,735,736,738,739,741,746,753,763,779,784,778,763,754,750,748,748,748,749,751,752,753,754,755,755,755,756,757,757,759,759,760,761,763,765,766,768,769,771,773,778,780,782,784,787,789,790,791,792,792,795,805,831,841,868,896,921,943,961,979,998,1000,1000,1013,1038,1059,1079,1095,1105,1104,1093,1108,1134,1151,1140,1130,1136,1145,1142,1132,1117,1096,1076,1060,1065,1072,1080,1090,1101,1118,1139,1159,1178,1197,1198,1191,1174,1155,1131,1104,1080,1060,1042,1016,985,958,939,928,926,927,930,932,939,939,938,934,928,925,921,921,928,939,947,950,959,965,979,993,1011,1019,1023,1043,1073,1100,1118,1113,1108,1124,1148,1156,1152,1157,1176,1202,1221,1216,1214,1217,1201,1175,1161,1167,1196,1216,1235,1232,1228,1220,1220,1220,1219,1220,1225,1238,1260,1291,1325,1364,1405,1447,1481,1490,1488,1480,1480,1478,1471,1458,1440,1420,1407,1401,1404,1399,1400,1408,1442,1477,1501,1521,1540,1564,1578,1560,1539,1525,1516,1490,1452,1415,1384,1358,1331,1299,1265,1233,1201,1166,1131,1104,1090,1078,1059,1040,1021,1009,1017,1016,1003,989,979,970,959,952,944,940,939,936,940,954,971,989,1004,1019,1037,1052,1067,1093,1119,1133,1127,1130,1141,1159,1178,1187,1191,1191,1191,1186,1177,1163,1176,1163,1167,1181,1206,1210,1217,1203,1202,1219,1239,1251,1257,1257,1250,1237,1220,1219,1226,1234,1239,1233,1219,1204,1215,1235,1257,1267,1260,1255,1258,1260,1260,1258,1250,1247,1258,1240,1260,1276,1289,1301,1317,1323,1317,1303,1292,1291,1301,1315,1312,1293,1275,1263,1265,1257,1243,1233,1211,1182,1161,1153,1147,1140,1139,1141,1145,1152,1162,1178,1189,1199,1199,1193,1186,1180,1189,1180,1175,1168,1164,1164,1168,1173,1180,1189,1200,1203,1204,1204,1199,1191,1180,1176,1174,1174,1175,1179,1186,1191,1196,1200,1205,1211,1219,1227,1233,1237,1237,1240,1251,1260,1272,1288,1295,1279,1245
518,508,498,491,490,493,499,500,499,493,499,516,527,538,530,518,502,494,494,496,499,500,500,502,519,529,543,559,568,567,569,569,561,556,556,559,564,570,580,589,599,605,610,613,618,613,609,608,608,611,619,620,620,619,616,615,615,617,617,618,620,620,621,622,622,622,623,623,624,625,627,629,630,632,634,635,636,638,639,644,651,660,673,680,685,686,685,683,682,680,679,677,675,675,675,676,677,679,679,680,683,686,687,686,681,675,670,668,666,667,666,666,667,667,668,668,669,669,670,670,669,667,663,660,657,656,655,655,655,654,654,653,652,651,650,650,650,650,650,650,650,650,649,649,648,647,647,646,646,646,645,645,645,644,644,643,643,642,642,642,642,642,642,642,643,643,644,644,644,644,644,645,645,645,645,645,645,645,646,646,647,648,649,650,650,650,650,650,650,650,650,650,650,650,650,650,650,651,651,651,651,652,652,652,653,653,654,655,655,656,657,658,658,659,659,659,659,660,660,660,660,661,661,661,661,662,662,663,663,664,664,665,666,666,667,668,668,670,671,673,675,678,680,684,689,695,692,693,694,700,707,711,720,729,738,741,752,762,777,779,780,783,800,817,835,857,877,877,874,897,897,888,881,883,897,903,914,932,958,973,960,948,923,893,863,841,830,827,819,800,779,763,752,744,739,732,724,719,718,718,720,724,729,735,739,742,750,759,768,774,781,797,808,808,797,779,764,749,736,728,724,724,728,734,740,734,729,726,726,727,729,731,733,735,737,738,738,740,744,751,760,778,785,785,777,761,755,752,750,750,751,751,753,754,755,756,756,756,756,757,758,758,759,760,761,763,765,767,769,770,772,774,776,779,780,782,787,791,792,793,793,793,795,800,809,822,842,866,887,902,915,929,942,945,948,968,994,1013,1025,1037,1044,1044,1039,1058,1084,1099,1093,1079,1085,1101,1108,1104,1088,1069,1051,1043,1056,1061,1068,1076,1079,1090,1111,1138,1161,1180,1184,1168,1151,1130,1103,1077,1059,1040,1021,999,975,950,937,933,932,933,939,941,948,950,946,940,934,934,938,939,940,949,956,961,978,989,999,1014,1031,1043,1048,1068,1097,1127,1152,1160,1162,1178,1202,1213,1213,1221,1241,1263,1275,1274,1274,1270,1240,1203,1175,1171,1182,1200,1210,1204,1201,1200,1211,1216,1219,1223,1228,1240,1261,1287,1315,1344,1379,1413,1442,1452,1470,1472,1475,1479,1481,1477,1457,1431,1415,1418,1424,1421,1418,1421,1446,1475,1496,1515,1544,1570,1576,1552,1535,1539,1530,1514,1473,1432,1402,1373,1342,1309,1273,1240,1214,1186,1151,1119,1095,1078,1061,1044,1024,1009,1001,999,996,981,973,967,959,949,940,937,938,938,940,948,960,977,990,1003,1020,1039,1057,1076,1088,1099,1101,1104,1121,1138,1164,1181,1195,1198,1199,1187,1182,1179,1182,1178,1174,1181,1200,1217,1222,1219,1220,1228,1240,1251,1258,1259,1254,1239,1220,1220,1230,1240,1249,1247,1239,1227,1221,1230,1245,1258,1259,1260,1270,1278,1280,1278,1266,1252,1242,1247,1259,1262,1278,1289,1303,1319,1323,1316,1302,1306,1326,1340,1338,1318,1298,1286,1280,1271,1260,1244,1210,1181,1165,1159,1154,1146,1144,1146,1151,1161,1177,1187,1193,1200,1208,1202,1199,1200,1194,1186,1179,1171,1167,1166,1168,1172,1179,1187,1199,1203,1207,1207,1204,1199,1187,1179,1176,1175,1176,1180,1188,1194,1199,1204,1210,1214,1220,1231,1235,1238,1239,1241,1258,1269,1281,1299,1291,1263,1221
499,488,481,479,480,485,489,489,486,480,488,507,518,520,511,500,493,492,495,499,501,502,504,509,519,521,537,549,559,561,563,562,558,556,556,558,560,566,578,587,592,599,600,600,600,600,599,599,599,600,607,611,612,612,610,611,612,614,615,616,618,619,620,621,621,621,621,622,622,623,625,627,629,631,633,634,636,637,640,644,651,661,678,683,687,688,686,684,683,682,679,674,672,672,673,675,676,677,678,680,684,688,692,695,697,683,674,670,671,669,668,668,668,668,669,670,671,672,673,674,674,673,669,664,660,657,656,655,654,654,653,652,652,651,650,650,649,649,650,650,650,650,650,649,648,647,647,646,646,645,645,645,644,644,644,643,643,643,643,643,643,643,643,643,643,644,644,645,645,645,645,645,645,645,645,645,645,646,646,647,647,648,649,649,650,650,650,650,650,650,650,650,650,650,650,650,650,651,651,651,652,652,652,653,653,654,654,655,655,656,657,657,658,658,659,659,659,659,660,660,660,660,660,661,661,661,662,662,663,663,664,665,665,666,667,667,668,669,671,672,674,677,679,682,686,690,687,688,690,694,699,704,710,716,721,729,740,751,760,761,766,769,779,793,808,832,859,876,882,901,902,900,899,899,897,898,899,906,925,944,949,949,939,915,884,860,851,845,837,818,797,776,759,747,740,734,728,723,720,719,721,725,729,735,740,743,750,760,769,779,787,800,815,819,802,781,769,758,742,732,728,728,733,743,756,743,733,728,727,728,730,733,735,737,738,739,740,741,746,751,759,770,780,784,779,765,759,755,752,751,751,752,753,755,757,757,757,756,758,759,760,760,760,761,763,766,768,770,771,772,773,774,776,778,777,780,790,794,795,795,796,797,799,801,804,811,822,840,857,865,874,889,897,903,908,928,953,968,974,980,987,990,991,1009,1029,1038,1032,1020,1027,1046,1060,1063,1049,1032,1021,1024,1038,1046,1050,1051,1051,1061,1085,1115,1141,1159,1159,1145,1123,1093,1065,1049,1034,1018,998,978,959,941,936,939,940,941,949,957,960,959,953,947,941,940,941,948,952,959,964,974,994,1006,1012,1027,1051,1072,1083,1103,1128,1160,1190,1210,1220,1237,1260,1274,1278,1287,1304,1320,1322,1315,1316,1302,1265,1223,1189,1174,1175,1182,1195,1199,1200,1206,1218,1220,1224,1228,1231,1240,1258,1277,1298,1321,1350,1381,1412,1436,1447,1454,1459,1462,1471,1470,1459,1439,1423,1433,1446,1447,1438,1439,1452,1470,1493,1510,1545,1570,1555,1527,1510,1523,1532,1516,1482,1442,1413,1384,1351,1317,1279,1238,1207,1178,1142,1109,1084,1075,1068,1055,1030,1011,998,982,979,973,970,966,959,949,940,937,938,939,939,943,950,961,977,989,1002,1019,1038,1049,1057,1072,1087,1102,1120,1138,1160,1179,1198,1200,1200,1197,1180,1179,1182,1186,1181,1186,1194,1203,1219,1230,1238,1240,1247,1255,1260,1262,1258,1239,1220,1223,1238,1250,1260,1261,1257,1242,1229,1237,1240,1249,1259,1265,1279,1289,1299,1299,1288,1275,1272,1273,1271,1267,1273,1280,1298,1318,1325,1325,1322,1334,1356,1366,1360,1343,1328,1312,1298,1283,1271,1241,1207,1183,1170,1164,1159,1152,1149,1152,1162,1177,1189,1199,1201,1208,1215,1218,1211,1211,1200,1191,1180,1172,1168,1167,1168,1171,1175,1180,1193,1200,1209,1209,1203,1199,1189,1180,1177,1177,1179,1185,1193,1200,1205,1208,1219,1220,1228,1239,1240,1240,1240,1244,1258,1268,1283,1299,1286,1251,1201
480,475,472,472,474,479,480,480,479,476,480,496,500,499,495,491,490,494,499,503,505,508,513,519,520,520,533,540,551,557,559,560,559,559,559,559,559,560,570,579,580,587,588,588,588,589,591,592,594,595,600,605,605,605,604,606,609,612,614,616,617,619,620,620,620,620,620,620,620,621,622,625,628,630,632,634,635,637,640,643,650,659,671,679,685,686,684,680,679,679,672,668,667,669,672,675,678,679,680,682,686,692,696,700,703,697,681,679,674,671,670,669,669,670,671,672,673,675,676,677,678,679,676,670,664,660,658,656,655,654,653,652,651,651,650,650,649,649,650,650,650,650,649,649,648,647,646,646,646,645,645,645,644,644,644,644,644,643,643,643,643,643,644,644,644,645,645,645,646,646,646,646,646,646,646,646,646,646,647,647,648,648,649,650,650,650,650,650,650,650,650,650,650,650,650,650,651,651,651,651,652,652,653,653,653,654,654,655,655,656,656,657,657,658,658,658,659,659,659,659,660,660,660,660,661,661,662,662,663,663,664,664,665,665,666,667,668,669,670,671,673,675,677,680,682,682,684,685,688,691,696,700,705,712,719,727,738,746,750,753,758,759,762,776,788,805,830,853,865,874,888,897,899,896,885,886,883,880,892,908,923,937,936,913,883,861,859,849,839,821,803,783,763,752,744,739,734,728,725,723,724,726,730,735,739,743,750,760,769,780,790,803,819,823,810,785,774,766,756,740,732,734,741,757,768,759,742,733,730,731,733,735,736,738,739,740,740,742,746,750,755,760,770,779,773,760,757,754,752,752,752,752,754,756,758,759,758,757,760,763,765,767,767,768,769,771,773,774,775,774,774,775,777,779,780,789,799,799,798,797,798,799,800,803,804,806,812,821,836,839,843,854,857,867,879,894,916,929,933,939,946,947,952,966,978,983,977,970,975,990,1006,1018,1015,1001,992,1003,1016,1025,1024,1031,1038,1044,1070,1101,1125,1136,1130,1116,1087,1053,1028,1016,1009,997,981,962,951,943,940,947,957,961,963,970,971,967,960,959,958,959,958,956,960,966,971,984,1005,1027,1039,1055,1081,1105,1119,1143,1168,1199,1230,1253,1271,1291,1315,1330,1338,1343,1347,1355,1340,1328,1300,1278,1247,1211,1183,1175,1181,1195,1200,1208,1217,1221,1227,1228,1232,1239,1236,1241,1250,1261,1277,1298,1322,1351,1382,1411,1434,1434,1439,1442,1453,1460,1459,1449,1442,1452,1467,1474,1467,1461,1461,1466,1483,1506,1539,1546,1526,1500,1479,1482,1493,1488,1466,1433,1405,1382,1357,1325,1288,1247,1217,1190,1156,1123,1099,1083,1079,1061,1037,1013,996,979,970,966,966,964,959,950,940,938,939,940,939,940,945,952,962,977,987,1001,1018,1024,1038,1054,1079,1105,1125,1143,1169,1195,1192,1196,1195,1181,1175,1178,1181,1197,1199,1200,1200,1208,1223,1239,1248,1251,1254,1259,1263,1264,1259,1239,1220,1224,1240,1259,1276,1281,1280,1263,1249,1254,1258,1259,1259,1264,1280,1298,1312,1319,1315,1300,1304,1302,1293,1282,1280,1280,1291,1309,1322,1333,1340,1357,1376,1375,1377,1364,1352,1333,1314,1294,1268,1239,1215,1196,1180,1168,1160,1154,1154,1160,1176,1190,1202,1217,1220,1220,1220,1222,1220,1219,1209,1198,1181,1174,1170,1169,1169,1173,1180,1188,1199,1210,1219,1212,1200,1196,1189,1183,1179,1178,1180,1188,1199,1205,1211,1216,1220,1227,1234,1240,1242,1242,1239,1239,1249,1264,1291,1310,1294,1245,1188
468,468,467,468,470,472,473,473,474,475,476,480,483,485,487,488,492,499,503,506,509,513,519,523,524,528,539,544,552,557,559,560,562,563,563,563,563,564,569,574,575,579,580,580,580,582,584,588,591,594,598,600,600,599,600,603,607,610,613,616,618,619,620,620,620,620,620,620,620,620,621,623,627,630,632,634,635,637,639,642,647,653,660,670,678,680,679,672,669,667,660,660,662,666,672,677,680,681,682,685,689,695,699,702,703,699,687,680,675,672,671,671,671,672,673,674,676,677,678,679,680,681,679,673,667,662,659,658,656,655,653,652,651,651,650,650,649,650,650,650,650,650,649,648,648,647,646,646,646,645,645,645,645,645,644,644,644,644,644,644,644,644,644,645,645,645,646,646,647,647,647,647,647,647,647,647,647,647,647,648,648,649,649,649,650,650,650,650,650,650,650,650,650,650,650,650,651,651,651,652,652,652,653,653,654,654,654,655,655,656,656,656,657,657,657,658,658,658,659,659,659,659,660,660,661,661,661,662,662,663,663,664,664,665,665,666,667,668,668,669,671,673,675,678,679,681,682,684,687,690,694,699,703,709,714,720,730,739,740,743,741,746,750,758,767,781,799,816,828,839,850,868,876,880,871,860,851,849,862,874,892,909,912,890,870,855,850,840,833,825,818,802,781,762,752,745,739,735,730,727,727,728,730,733,736,740,749,759,769,780,794,811,823,826,818,798,780,769,759,741,736,739,748,762,779,777,757,740,734,735,736,737,738,739,740,740,741,743,746,750,753,756,760,768,767,760,756,754,753,753,752,753,754,757,759,760,760,760,764,769,773,779,780,780,780,780,780,780,779,777,776,775,777,780,786,799,802,800,798,798,799,801,805,806,807,808,810,814,820,820,824,830,833,841,856,866,885,897,902,908,914,912,921,935,939,938,933,936,940,948,962,975,983,978,974,980,988,997,1002,1016,1027,1038,1057,1081,1103,1108,1097,1083,1058,1027,1020,1005,1017,993,986,968,960,959,959,963,975,988,989,994,994,981,970,968,969,969,964,960,968,978,986,999,1024,1053,1073,1092,1122,1150,1168,1193,1217,1246,1274,1294,1313,1331,1355,1369,1377,1377,1368,1356,1328,1301,1278,1239,1216,1192,1179,1181,1196,1205,1210,1220,1229,1238,1240,1240,1240,1244,1245,1255,1253,1254,1262,1280,1300,1324,1353,1382,1405,1408,1419,1428,1441,1452,1456,1456,1459,1467,1479,1486,1487,1487,1483,1466,1483,1501,1521,1522,1504,1477,1449,1439,1440,1441,1430,1410,1394,1378,1357,1328,1303,1265,1232,1207,1180,1148,1122,1103,1094,1068,1040,1016,996,977,961,959,960,959,954,949,940,940,942,943,943,944,947,951,959,967,978,990,1010,1020,1033,1044,1069,1099,1124,1142,1160,1176,1170,1177,1167,1155,1160,1181,1187,1196,1201,1213,1213,1220,1236,1244,1255,1259,1257,1260,1265,1265,1259,1240,1226,1228,1241,1261,1283,1301,1306,1289,1270,1276,1280,1276,1261,1260,1278,1298,1319,1334,1339,1329,1337,1335,1328,1310,1304,1294,1292,1300,1316,1336,1346,1361,1379,1383,1386,1378,1360,1347,1320,1293,1266,1245,1225,1206,1189,1173,1160,1156,1159,1167,1182,1201,1218,1231,1239,1238,1227,1233,1228,1220,1211,1201,1189,1179,1173,1171,1174,1182,1196,1201,1210,1219,1224,1219,1208,1200,1193,1186,1182,1179,1180,1189,1199,1205,1212,1219,1222,1224,1239,1243,1243,1239,1229,1222,1239,1263,1295,1319,1291,1235,1175
463,466,467,468,469,470,471,472,475,479,480,482,486,488,492,499,501,506,508,511,513,518,521,525,528,532,539,547,554,559,560,562,564,566,567,568,568,571,573,573,573,575,576,577,578,579,581,586,591,596,599,599,598,598,599,602,606,609,613,616,618,620,620,620,620,620,620,619,619,620,620,623,627,630,632,634,635,636,638,640,643,648,653,659,661,666,666,660,660,659,657,658,660,666,673,679,682,683,685,688,692,696,700,701,700,696,684,679,676,674,673,672,673,674,675,676,677,679,679,680,680,681,679,674,668,663,660,658,657,655,654,653,651,651,650,650,650,650,650,650,650,649,649,648,647,647,646,646,646,646,645,645,645,645,645,645,645,645,645,645,645,645,645,645,646,646,647,647,648,648,648,648,648,648,648,648,648,648,648,648,648,649,649,649,649,649,650,650,650,650,650,650,650,650,650,650,651,651,651,652,652,652,653,653,654,654,655,655,655,656,656,656,656,657,657,657,658,658,658,658,659,659,660,660,660,660,661,661,662,662,663,663,664,664,665,665,666,667,667,668,670,672,674,677,678,680,681,683,686,689,693,697,700,705,710,715,720,730,733,738,736,739,739,740,743,757,769,777,787,800,814,820,835,839,834,829,825,836,848,847,862,879,882,870,854,840,836,823,819,819,819,816,796,776,760,751,744,739,734,731,730,730,731,732,735,740,748,759,770,780,790,802,819,824,819,800,780,769,759,746,740,744,754,769,780,779,760,741,737,739,739,739,739,739,739,740,740,743,747,752,756,757,760,765,766,763,760,756,754,755,755,755,756,759,762,764,764,767,772,779,783,797,799,800,798,791,788,786,783,780,777,776,779,782,788,793,804,802,800,800,801,806,809,811,814,814,813,815,816,817,818,819,820,827,839,849,860,870,878,882,889,885,896,904,908,903,903,915,923,929,937,944,956,960,962,970,975,981,991,1002,1019,1029,1041,1058,1077,1081,1073,1059,1056,1038,1048,1039,1041,1025,1013,994,982,986,988,990,995,1001,1018,1026,1019,999,981,978,980,979,972,970,979,988,999,1009,1041,1075,1105,1132,1167,1197,1220,1246,1273,1300,1319,1333,1348,1361,1377,1384,1384,1378,1358,1330,1297,1266,1241,1223,1191,1180,1180,1195,1205,1212,1222,1236,1242,1252,1258,1259,1259,1263,1272,1275,1262,1260,1266,1278,1289,1302,1325,1354,1380,1397,1408,1421,1439,1449,1454,1456,1460,1469,1480,1490,1499,1510,1511,1514,1503,1511,1519,1513,1487,1457,1424,1398,1386,1385,1384,1375,1374,1362,1346,1323,1297,1266,1237,1213,1185,1158,1135,1113,1087,1059,1031,1005,983,968,959,955,952,948,944,940,940,944,949,950,951,954,955,954,956,961,977,995,1016,1026,1038,1045,1061,1086,1108,1126,1141,1150,1143,1140,1133,1132,1145,1174,1199,1200,1209,1219,1221,1228,1236,1241,1258,1263,1261,1267,1270,1268,1259,1240,1232,1235,1250,1271,1294,1316,1315,1313,1296,1300,1305,1294,1278,1269,1276,1294,1322,1345,1359,1349,1358,1359,1357,1340,1331,1315,1309,1302,1303,1325,1342,1358,1371,1383,1388,1385,1373,1348,1321,1299,1277,1256,1232,1214,1196,1177,1161,1160,1165,1174,1192,1215,1229,1244,1259,1257,1252,1238,1229,1220,1211,1201,1189,1180,1176,1175,1182,1197,1206,1217,1221,1229,1232,1229,1220,1209,1199,1190,1186,1185,1186,1191,1196,1200,1206,1214,1219,1220,1240,1243,1239,1229,1217,1216,1231,1258,1291,1311,1277,1221,1163
466,470,471,471,472,475,473,474,479,485,489,492,499,500,503,517,519,516,515,519,521,530,537,534,532,535,540,549,556,559,560,563,566,570,573,574,575,579,579,576,576,579,578,578,578,579,580,587,592,596,599,600,599,598,599,602,606,609,613,615,618,620,620,620,620,619,619,619,619,620,621,625,629,632,634,635,635,636,637,639,641,644,648,652,655,659,659,656,655,656,657,659,661,666,673,679,682,684,685,688,692,696,700,701,699,688,680,677,675,674,674,674,674,675,676,677,678,679,680,680,680,680,677,672,667,663,660,659,658,656,654,653,652,651,650,650,650,650,650,650,649,649,648,648,647,647,647,646,646,646,646,646,646,646,646,646,646,646,646,646,646,646,646,646,647,647,647,648,648,649,649,649,649,649,649,648,648,648,648,649,649,649,649,649,649,649,650,650,650,650,650,650,650,650,650,650,651,651,651,652,652,653,653,654,654,654,655,655,655,656,656,656,656,657,657,657,657,658,658,658,658,659,659,659,660,660,660,661,662,662,663,663,663,664,664,665,665,666,667,668,669,671,673,675,677,679,681,683,686,689,692,696,699,704,709,714,719,720,720,721,726,730,730,730,732,740,748,753,759,766,778,785,802,805,804,808,810,817,823,829,841,857,860,852,837,822,818,807,801,800,801,798,782,766,759,753,746,740,736,734,732,731,731,732,735,740,748,759,770,780,788,800,814,820,819,800,781,771,760,752,746,749,757,771,782,779,760,746,740,740,740,740,739,740,740,739,740,743,748,754,759,760,763,768,771,771,766,760,757,759,760,760,760,764,767,768,770,773,779,788,798,808,814,820,811,800,794,790,786,782,779,777,779,783,789,794,800,806,804,804,808,810,813,816,819,819,818,820,820,822,820,819,816,819,830,839,845,852,860,866,871,873,879,881,891,892,893,901,918,925,931,934,942,958,962,977,982,995,999,1006,1019,1026,1033,1043,1061,1071,1069,1063,1061,1056,1049,1061,1073,1056,1033,1009,1002,1014,1021,1028,1033,1043,1059,1063,1047,1021,999,991,997,989,980,980,988,1001,1016,1029,1061,1091,1127,1163,1201,1236,1266,1296,1327,1357,1374,1380,1381,1381,1380,1378,1369,1356,1328,1295,1264,1237,1215,1202,1194,1180,1189,1200,1210,1222,1238,1253,1262,1274,1281,1283,1285,1294,1304,1298,1282,1278,1279,1281,1290,1298,1306,1332,1363,1386,1403,1420,1439,1447,1451,1454,1460,1469,1480,1491,1501,1519,1517,1522,1519,1519,1514,1490,1460,1432,1398,1364,1342,1337,1344,1344,1347,1340,1325,1298,1271,1243,1216,1188,1159,1136,1115,1091,1065,1041,1024,1004,978,960,954,950,946,940,940,940,946,952,959,960,961,968,970,961,959,959,968,982,1000,1017,1029,1038,1050,1064,1084,1103,1120,1126,1119,1115,1117,1123,1148,1180,1200,1212,1218,1227,1237,1239,1240,1241,1258,1270,1278,1279,1277,1271,1259,1240,1236,1240,1258,1278,1295,1312,1325,1327,1320,1320,1321,1312,1294,1280,1280,1299,1331,1358,1348,1328,1324,1323,1327,1341,1357,1336,1336,1331,1324,1329,1341,1357,1371,1382,1383,1378,1361,1333,1315,1299,1280,1261,1242,1220,1194,1177,1171,1177,1175,1178,1191,1215,1234,1259,1277,1271,1259,1240,1229,1220,1210,1198,1181,1179,1179,1181,1196,1208,1219,1227,1233,1239,1240,1239,1231,1218,1201,1193,1191,1192,1193,1194,1195,1196,1200,1206,1216,1220,1230,1238,1223,1212,1194,1204,1217,1240,1265,1279,1248,1199,1150
473,479,479,479,482,489,482,481,486,493,499,500,506,511,518,522,522,519,520,529,539,545,547,540,536,539,545,554,559,560,560,564,569,575,579,579,580,586,586,581,580,583,582,581,581,581,583,588,593,597,599,600,599,599,600,603,606,610,613,615,617,619,620,619,620,619,619,619,619,621,623,627,632,636,636,636,636,637,638,639,639,642,646,649,651,654,655,654,654,655,657,659,661,665,670,676,680,682,684,687,691,695,698,699,692,686,679,677,675,675,675,675,675,676,677,678,679,680,680,680,679,677,674,669,665,661,660,659,657,656,654,653,652,651,650,650,650,650,650,650,649,649,648,648,647,647,647,647,647,647,647,647,647,647,647,647,647,647,646,646,646,647,647,647,647,648,648,648,649,649,649,650,649,649,649,649,649,649,649,649,649,649,650,650,649,650,649,650,650,650,650,650,650,650,650,650,651,651,652,652,652,653,653,654,654,655,655,655,655,656,656,656,657,657,657,657,658,658,658,658,658,659,659,659,659,660,660,661,661,662,662,662,663,663,663,664,665,665,666,667,668,670,671,674,677,680,681,683,685,688,692,696,699,702,706,710,713,713,713,715,719,723,724,725,729,734,739,742,746,751,760,768,778,787,791,799,803,808,813,820,830,839,841,838,822,814,808,800,795,791,786,780,772,764,760,756,749,743,739,736,734,732,732,732,734,739,746,759,770,779,786,800,813,819,815,801,789,779,767,759,753,754,761,778,784,779,761,751,745,742,740,740,740,740,740,740,740,743,748,754,759,762,766,772,777,779,774,766,760,762,769,771,771,773,774,774,774,775,780,789,800,812,823,837,822,811,799,792,787,783,779,778,780,786,793,800,808,813,811,809,812,813,815,818,820,819,820,831,834,846,840,830,820,821,832,839,840,845,852,859,866,872,882,895,899,899,900,906,919,929,938,942,957,975,982,997,1000,1006,1008,1012,1021,1029,1041,1056,1069,1079,1079,1080,1086,1090,1079,1078,1068,1057,1031,1017,1021,1039,1056,1069,1079,1094,1105,1102,1079,1047,1016,1009,1008,1001,993,997,1002,1019,1038,1057,1086,1119,1154,1188,1228,1269,1306,1341,1375,1402,1420,1419,1409,1397,1380,1363,1344,1328,1300,1268,1242,1219,1200,1196,1199,1195,1199,1208,1221,1239,1259,1276,1291,1306,1312,1316,1319,1326,1335,1321,1301,1291,1296,1301,1313,1320,1322,1333,1353,1386,1414,1426,1440,1444,1447,1449,1458,1468,1480,1490,1500,1511,1519,1522,1519,1508,1491,1461,1435,1407,1375,1339,1313,1296,1302,1306,1315,1316,1295,1267,1240,1210,1178,1147,1116,1093,1074,1056,1036,1018,1012,995,969,957,953,951,950,951,949,950,958,960,965,969,977,985,994,979,967,959,960,970,983,1000,1015,1029,1043,1056,1066,1087,1103,1110,1101,1101,1117,1132,1152,1179,1200,1213,1227,1237,1246,1248,1249,1250,1260,1271,1279,1281,1279,1272,1259,1240,1239,1243,1260,1278,1292,1312,1337,1340,1339,1335,1339,1335,1313,1295,1290,1304,1334,1359,1332,1308,1294,1291,1300,1319,1320,1304,1334,1356,1347,1346,1345,1355,1362,1377,1378,1365,1345,1320,1306,1298,1281,1269,1257,1235,1207,1184,1180,1185,1180,1178,1190,1217,1240,1267,1283,1273,1257,1240,1229,1220,1210,1198,1181,1181,1184,1188,1199,1210,1220,1230,1239,1244,1244,1243,1238,1222,1209,1200,1196,1199,1200,1199,1196,1195,1196,1201,1218,1222,1227,1228,1208,1192,1181,1194,1194,1212,1232,1241,1216,1176,1134
480,487,489,492,502,513,503,498,495,499,504,507,512,516,519,520,521,521,524,539,556,560,560,553,541,541,551,559,563,563,563,567,573,580,584,587,591,599,599,599,598,592,588,585,584,585,587,590,594,597,600,600,600,599,601,603,607,611,614,615,616,617,618,619,619,619,619,619,620,622,626,630,635,639,640,640,640,640,640,640,640,643,646,648,649,650,652,653,653,655,656,658,660,662,667,672,676,679,682,685,689,692,695,695,688,684,680,677,676,676,676,676,676,677,678,678,679,679,679,679,677,675,671,666,662,660,658,658,656,655,654,653,652,651,650,650,650,650,649,649,649,648,648,648,648,648,648,648,648,648,647,647,647,647,648,648,648,647,647,647,647,647,647,648,648,648,649,649,649,649,650,650,650,650,650,649,649,649,649,649,649,650,650,650,650,650,649,649,650,650,650,650,650,650,650,650,651,651,652,652,653,653,654,654,654,655,655,655,656,656,656,656,657,657,657,658,658,658,658,658,658,659,659,659,660,660,660,661,661,661,662,662,662,663,663,663,664,665,666,667,668,669,671,673,677,679,681,683,685,688,691,694,697,700,703,706,708,708,709,711,715,719,721,725,731,734,736,739,743,747,753,760,767,773,783,792,799,807,814,819,827,834,835,833,826,820,811,806,800,791,780,773,768,765,762,759,753,747,743,739,737,734,733,732,733,735,741,759,769,775,781,799,811,817,815,806,798,781,771,760,756,759,767,779,784,779,768,759,749,744,741,740,740,740,739,739,740,742,747,751,756,759,765,775,780,780,779,771,765,764,778,781,780,779,779,778,777,777,780,788,799,813,831,839,829,816,801,793,788,783,780,780,784,792,800,811,819,820,816,816,815,815,817,819,819,819,826,840,855,860,857,842,832,838,850,855,851,849,855,860,869,882,897,905,910,914,918,921,930,939,948,958,968,982,999,1016,1019,1019,1020,1022,1036,1042,1056,1067,1079,1085,1089,1097,1109,1115,1099,1081,1064,1055,1026,1027,1042,1068,1094,1114,1131,1145,1148,1137,1110,1075,1040,1028,1027,1022,1007,1015,1023,1043,1061,1085,1118,1151,1183,1219,1260,1303,1344,1382,1414,1434,1442,1437,1420,1401,1380,1358,1332,1315,1292,1264,1240,1217,1200,1200,1208,1212,1210,1220,1238,1260,1281,1301,1318,1331,1338,1338,1339,1341,1356,1342,1320,1303,1311,1329,1350,1362,1359,1352,1360,1388,1414,1423,1437,1439,1439,1440,1447,1462,1477,1487,1500,1507,1516,1520,1521,1514,1484,1451,1421,1391,1358,1326,1292,1267,1264,1263,1273,1278,1262,1238,1209,1175,1139,1102,1069,1042,1024,1014,1005,995,985,976,963,959,959,958,958,960,960,960,967,969,971,973,982,1000,1015,994,975,963,959,966,978,989,1002,1021,1041,1059,1075,1079,1089,1094,1094,1100,1120,1143,1160,1180,1200,1217,1237,1246,1253,1256,1259,1260,1267,1274,1279,1283,1280,1274,1259,1240,1236,1240,1258,1272,1284,1310,1336,1343,1344,1341,1352,1356,1335,1310,1300,1316,1340,1359,1328,1300,1281,1307,1341,1339,1338,1343,1348,1325,1311,1314,1326,1346,1353,1361,1364,1346,1324,1301,1293,1288,1279,1268,1257,1237,1217,1199,1194,1198,1188,1180,1190,1216,1239,1262,1267,1260,1243,1234,1227,1219,1210,1199,1191,1190,1191,1194,1200,1209,1219,1228,1239,1244,1244,1242,1239,1228,1219,1209,1200,1203,1205,1204,1200,1199,1200,1205,1215,1220,1223,1220,1211,1178,1163,1172,1167,1181,1199,1206,1186,1157,1120
488,499,500,503,517,519,518,510,500,502,506,510,516,519,520,520,523,525,529,540,559,571,578,573,561,558,559,563,566,567,568,573,580,587,591,593,599,605,608,609,608,601,593,589,589,590,591,593,597,600,602,601,600,600,602,605,608,613,616,616,616,617,619,620,621,620,620,621,622,624,627,631,635,640,644,645,646,648,649,649,649,649,650,651,651,651,652,653,654,655,656,657,658,660,665,670,674,677,680,683,686,689,691,687,685,682,680,678,677,677,677,677,677,678,678,679,679,679,679,677,675,672,668,664,660,659,658,657,656,655,653,652,651,651,650,650,650,649,649,649,649,648,648,648,648,648,648,649,649,648,648,648,648,648,648,649,649,648,648,648,648,648,648,648,649,649,649,649,650,650,650,650,650,650,650,649,649,649,649,650,650,650,650,650,650,650,650,650,650,650,650,650,650,650,650,650,651,651,652,652,653,653,654,654,655,655,655,656,656,656,656,657,657,657,658,658,658,659,659,659,659,659,659,659,660,660,660,661,661,661,661,662,662,662,663,663,664,664,665,666,668,668,670,672,675,678,680,682,684,687,690,693,695,697,700,702,704,705,706,709,713,717,720,730,739,741,740,743,746,750,755,759,765,770,775,791,800,811,819,824,831,840,840,840,840,837,823,820,816,798,780,773,771,769,765,760,755,750,746,743,739,737,734,732,732,734,740,756,766,772,780,797,807,813,813,807,800,789,778,766,760,764,771,780,787,780,771,760,750,744,741,739,739,739,739,739,740,742,745,748,752,755,761,778,782,781,778,771,773,778,767,778,778,780,781,780,778,777,780,786,793,802,818,828,817,803,799,793,788,785,783,784,790,799,808,819,819,821,823,820,820,820,820,821,820,821,830,837,846,859,861,857,845,859,877,882,872,862,869,873,881,896,905,913,921,930,938,941,951,956,964,976,981,993,1012,1026,1032,1032,1038,1042,1056,1060,1066,1072,1080,1089,1095,1107,1121,1126,1110,1094,1082,1063,1045,1053,1073,1103,1132,1159,1180,1190,1184,1163,1134,1097,1062,1048,1055,1051,1032,1033,1046,1065,1085,1113,1147,1182,1218,1257,1297,1338,1377,1411,1435,1440,1439,1426,1417,1399,1380,1358,1337,1317,1297,1272,1245,1220,1210,1216,1231,1240,1238,1231,1251,1277,1298,1316,1329,1340,1344,1339,1339,1342,1359,1358,1340,1322,1330,1358,1387,1402,1398,1380,1366,1380,1401,1416,1421,1422,1431,1440,1452,1459,1462,1477,1481,1499,1510,1517,1520,1516,1487,1461,1423,1385,1350,1317,1281,1256,1240,1228,1234,1237,1228,1208,1179,1145,1105,1065,1028,1000,984,979,978,978,962,960,961,970,973,970,971,978,976,976,979,979,979,981,994,1011,1026,1009,984,969,962,965,972,980,996,1017,1037,1047,1050,1051,1062,1077,1087,1100,1120,1141,1160,1180,1199,1213,1229,1251,1259,1260,1266,1271,1279,1281,1280,1285,1284,1278,1259,1240,1235,1240,1257,1273,1287,1304,1326,1341,1351,1355,1359,1361,1346,1323,1312,1323,1345,1357,1331,1315,1307,1344,1386,1404,1411,1416,1406,1369,1337,1323,1301,1317,1343,1354,1358,1336,1322,1294,1286,1279,1269,1259,1241,1223,1213,1203,1200,1205,1199,1189,1198,1212,1230,1254,1255,1250,1239,1230,1224,1219,1209,1200,1199,1199,1199,1200,1203,1209,1214,1220,1229,1239,1240,1240,1239,1228,1223,1219,1210,1210,1213,1213,1210,1208,1208,1211,1216,1220,1222,1217,1199,1158,1142,1145,1142,1152,1168,1173,1160,1137,1103
499,510,518,520,521,524,524,519,509,506,508,513,519,524,525,526,530,530,532,540,559,577,584,584,579,571,567,567,569,572,574,580,590,599,601,601,607,611,614,619,620,617,600,594,594,595,595,597,599,602,604,603,602,602,603,606,610,615,619,620,620,620,627,629,630,629,627,625,625,627,629,632,636,640,645,648,652,656,659,659,659,656,655,654,653,653,653,654,655,655,655,656,657,660,665,670,674,677,679,681,684,686,685,685,684,682,680,679,679,678,678,678,678,678,678,678,679,678,677,676,674,671,667,663,660,659,658,657,656,655,653,652,651,651,650,650,650,650,649,649,649,649,649,649,649,649,649,649,650,649,649,649,649,649,649,649,649,649,649,648,648,649,649,649,649,649,650,650,650,650,650,650,650,650,650,649,649,649,649,650,650,650,650,650,650,650,650,650,650,650,649,650,650,650,650,650,651,652,652,653,653,654,654,655,655,655,655,656,656,656,656,657,657,658,658,659,659,659,659,659,659,659,659,659,660,660,660,660,661,661,661,661,662,662,662,663,663,664,665,666,667,668,669,672,675,677,679,682,684,686,689,691,693,695,697,699,701,703,705,708,712,719,730,740,752,758,753,752,753,755,759,763,768,773,780,799,807,819,825,831,842,857,859,860,860,856,842,835,821,802,787,780,780,779,772,765,759,755,750,747,743,739,736,734,733,733,735,742,756,766,773,783,799,807,809,806,800,793,780,770,766,771,780,791,799,791,778,760,750,745,741,739,739,739,738,738,739,741,743,746,749,753,760,773,779,777,763,760,767,775,778,764,768,774,779,778,777,777,780,784,788,793,800,803,800,795,793,791,788,786,785,788,792,800,809,817,820,822,824,826,830,828,828,832,838,839,840,841,850,859,862,867,866,880,896,892,894,884,893,892,894,901,911,922,937,949,959,967,984,994,992,992,998,1006,1028,1040,1048,1044,1055,1062,1077,1081,1081,1081,1090,1100,1103,1118,1132,1138,1122,1110,1108,1087,1068,1079,1106,1138,1171,1200,1221,1226,1210,1181,1144,1104,1070,1075,1086,1078,1058,1053,1071,1095,1118,1149,1182,1219,1259,1299,1333,1365,1395,1418,1433,1435,1431,1417,1402,1390,1375,1351,1330,1309,1288,1265,1240,1222,1225,1243,1267,1277,1265,1246,1256,1276,1289,1302,1318,1330,1335,1324,1333,1351,1359,1362,1357,1340,1350,1378,1407,1406,1412,1401,1380,1380,1391,1401,1411,1419,1427,1439,1449,1459,1459,1465,1478,1491,1504,1512,1514,1509,1490,1468,1440,1406,1370,1334,1299,1268,1238,1218,1206,1198,1192,1176,1148,1116,1080,1040,1005,982,980,989,981,981,977,976,987,1002,1001,993,991,997,993,994,993,992,991,999,1010,1023,1038,1027,1003,982,971,971,971,973,981,999,1019,1029,1023,1024,1041,1061,1079,1096,1118,1140,1160,1180,1193,1203,1220,1237,1259,1264,1273,1281,1291,1298,1293,1293,1289,1279,1260,1244,1240,1247,1266,1285,1301,1318,1327,1342,1356,1359,1354,1357,1354,1341,1325,1340,1358,1344,1321,1317,1334,1387,1439,1467,1479,1482,1468,1438,1408,1380,1333,1303,1319,1338,1354,1349,1335,1312,1295,1281,1263,1258,1242,1230,1220,1210,1211,1219,1216,1201,1200,1209,1221,1230,1240,1240,1233,1225,1219,1214,1207,1200,1201,1203,1204,1205,1207,1210,1213,1216,1220,1232,1237,1238,1233,1220,1219,1215,1209,1213,1219,1220,1219,1216,1215,1216,1219,1222,1219,1202,1179,1155,1115,1118,1119,1128,1141,1150,1141,1122,1091
500,518,531,538,538,533,528,520,514,509,510,514,520,529,532,534,539,536,536,540,550,563,580,588,589,580,573,572,574,579,580,587,599,609,618,619,620,620,621,625,625,619,603,597,599,599,599,600,602,605,606,606,605,605,606,609,612,616,620,629,630,632,639,640,640,639,635,632,629,629,630,633,636,640,645,650,655,659,663,663,662,660,658,657,656,655,655,655,656,657,656,657,660,664,668,672,675,677,679,680,681,683,683,683,683,682,680,680,680,679,679,678,678,678,678,678,678,677,676,675,672,669,666,663,661,659,658,657,656,655,653,652,651,651,650,650,650,650,649,649,649,649,649,650,649,649,650,650,651,650,650,649,649,649,650,650,650,650,649,649,649,649,649,649,649,650,650,650,650,650,650,650,650,649,649,649,650,650,650,650,650,650,650,650,650,650,650,650,650,650,650,650,650,650,650,650,651,652,652,653,653,654,654,655,655,655,656,656,656,656,657,657,657,658,658,659,660,659,659,659,659,660,659,659,659,660,660,660,660,661,661,661,661,662,662,662,663,664,665,665,667,668,670,672,674,677,679,682,684,686,688,690,692,694,696,698,700,702,704,707,712,721,737,747,758,763,760,759,759,760,763,768,773,780,789,799,812,819,829,842,859,877,880,881,879,870,857,841,828,818,802,799,797,790,780,772,765,760,755,751,747,743,739,737,736,735,735,737,742,758,767,779,790,799,805,805,803,798,780,774,773,780,790,799,803,798,779,761,752,747,743,740,739,738,738,738,739,740,742,745,748,753,759,766,767,761,755,755,759,760,761,759,762,766,769,771,773,776,780,784,785,787,790,791,790,789,788,787,787,787,788,790,794,800,807,814,819,819,823,829,839,836,836,840,848,853,858,860,860,860,863,878,880,889,899,901,903,902,912,916,911,914,922,937,950,963,980,997,1018,1030,1023,1008,1016,1029,1054,1071,1075,1065,1069,1082,1102,1109,1107,1102,1112,1124,1123,1129,1139,1146,1139,1131,1134,1119,1098,1108,1136,1172,1208,1236,1255,1253,1225,1184,1143,1110,1089,1099,1111,1090,1075,1080,1104,1137,1164,1195,1227,1264,1302,1334,1358,1378,1391,1403,1418,1420,1417,1402,1390,1379,1362,1342,1322,1301,1280,1259,1241,1241,1252,1282,1306,1309,1285,1252,1239,1256,1268,1279,1291,1302,1310,1311,1323,1347,1351,1357,1358,1340,1356,1378,1402,1418,1418,1399,1384,1383,1390,1399,1407,1414,1420,1428,1440,1450,1458,1467,1479,1489,1499,1506,1507,1505,1496,1485,1458,1427,1392,1355,1320,1286,1250,1215,1184,1166,1155,1143,1118,1088,1061,1029,1006,989,997,1004,1002,1007,1009,1008,1012,1024,1029,1014,1006,1010,1016,1017,1013,1009,1004,1015,1026,1038,1047,1043,1028,1007,988,985,978,972,973,982,999,1009,1013,1021,1041,1059,1073,1085,1109,1135,1157,1176,1182,1197,1210,1223,1239,1262,1279,1292,1299,1302,1300,1299,1294,1280,1262,1249,1246,1254,1271,1298,1321,1337,1342,1354,1359,1344,1328,1331,1351,1359,1345,1355,1357,1327,1313,1329,1375,1437,1488,1518,1532,1531,1516,1491,1466,1436,1385,1329,1311,1318,1332,1355,1353,1336,1320,1305,1285,1276,1262,1252,1237,1222,1224,1236,1230,1218,1210,1212,1223,1232,1240,1239,1230,1220,1215,1211,1206,1203,1204,1207,1209,1210,1212,1214,1215,1219,1225,1234,1239,1239,1233,1220,1216,1207,1200,1207,1215,1219,1221,1219,1218,1218,1220,1224,1218,1189,1155,1126,1101,1090,1092,1104,1117,1134,1128,1114,1083
503,522,540,550,549,540,533,526,519,511,514,520,530,539,540,541,545,540,539,539,545,560,578,591,599,591,580,579,580,587,589,592,600,610,620,628,634,638,638,635,631,626,616,600,601,603,604,604,607,609,610,609,608,608,609,612,615,620,626,635,639,640,644,646,646,644,640,636,633,631,631,633,636,640,644,649,655,659,662,663,662,661,660,658,657,656,656,656,657,659,660,660,666,671,674,676,677,678,679,679,680,680,681,682,682,682,681,681,680,680,679,679,679,678,678,678,677,676,675,673,671,669,666,663,661,660,659,658,656,655,653,652,651,651,650,650,650,650,650,649,649,649,650,650,650,650,651,651,652,652,651,650,650,650,650,651,651,650,650,649,650,649,649,650,650,650,650,650,650,650,650,650,650,649,649,649,649,650,650,650,650,650,651,651,651,651,651,650,650,650,650,650,649,650,650,650,651,652,652,653,654,654,655,655,656,656,656,656,657,657,657,657,657,658,659,659,660,660,660,660,660,660,659,659,659,660,660,660,660,661,661,661,661,661,662,662,663,663,664,665,666,668,670,672,674,677,679,682,684,686,688,690,692,694,696,698,699,701,703,707,712,719,730,739,744,757,760,762,762,763,767,772,779,790,800,810,819,824,840,859,879,897,903,907,899,882,866,849,837,836,823,818,810,799,789,780,772,765,760,756,751,746,743,740,739,739,738,739,742,752,760,769,780,790,799,800,799,793,780,779,780,789,799,805,807,800,782,768,759,752,746,743,740,739,739,739,739,741,742,745,748,752,756,760,759,755,752,752,754,755,757,759,759,760,760,763,768,773,779,780,780,782,784,785,785,784,784,785,786,787,789,792,795,799,804,809,810,815,820,827,839,840,840,846,854,860,870,879,878,868,878,880,884,891,900,906,912,920,930,938,934,924,936,947,959,978,1000,1024,1043,1051,1044,1033,1031,1045,1068,1082,1096,1090,1084,1102,1126,1143,1142,1132,1143,1152,1141,1140,1142,1157,1158,1149,1157,1152,1134,1133,1163,1202,1240,1271,1287,1272,1233,1187,1148,1121,1106,1116,1118,1100,1091,1110,1144,1180,1218,1252,1282,1313,1341,1359,1369,1376,1380,1389,1399,1400,1400,1394,1381,1374,1360,1344,1326,1300,1279,1265,1258,1263,1287,1309,1332,1314,1289,1253,1240,1240,1252,1261,1273,1281,1291,1300,1318,1339,1357,1357,1353,1344,1349,1362,1381,1397,1398,1383,1380,1387,1392,1401,1408,1412,1415,1420,1431,1441,1449,1460,1476,1480,1490,1499,1500,1501,1497,1482,1457,1419,1381,1347,1312,1275,1235,1193,1159,1139,1124,1114,1094,1068,1053,1024,1014,994,1004,1019,1025,1036,1034,1042,1050,1060,1057,1039,1024,1020,1029,1038,1040,1036,1025,1023,1039,1048,1055,1060,1055,1037,1017,1010,990,976,972,979,990,1000,1014,1030,1054,1067,1079,1089,1104,1122,1139,1154,1162,1179,1198,1216,1230,1252,1275,1296,1299,1302,1301,1301,1299,1283,1271,1257,1252,1260,1279,1308,1334,1347,1354,1359,1345,1323,1309,1303,1323,1345,1358,1364,1354,1320,1320,1367,1428,1486,1531,1562,1577,1572,1552,1525,1500,1472,1427,1368,1312,1303,1314,1334,1356,1348,1338,1329,1312,1300,1291,1283,1261,1243,1247,1256,1244,1230,1220,1230,1231,1243,1257,1242,1230,1219,1214,1210,1208,1206,1208,1210,1213,1215,1216,1219,1220,1225,1232,1239,1242,1241,1239,1228,1218,1200,1188,1198,1208,1216,1220,1220,1218,1217,1220,1224,1214,1176,1132,1099,1073,1059,1057,1072,1093,1112,1114,1096,1063
518,536,549,559,559,551,540,532,520,513,519,527,539,547,552,558,559,550,543,539,540,558,574,588,599,599,592,590,592,599,599,596,600,608,619,627,639,646,646,640,635,628,619,607,606,607,608,609,612,614,615,613,611,611,612,616,619,624,631,639,645,649,651,652,652,649,644,640,636,633,633,634,636,639,642,647,652,657,660,661,661,661,660,659,658,657,657,657,658,660,666,669,675,679,680,679,679,679,679,679,679,680,680,681,681,681,681,681,680,680,680,679,679,678,678,677,676,675,674,672,670,668,666,664,662,660,659,658,656,655,654,652,652,651,650,650,650,650,650,650,650,650,650,651,651,651,652,652,653,653,652,651,651,651,652,652,652,651,650,650,650,650,650,650,650,650,650,650,650,650,650,649,649,649,649,649,649,649,650,650,650,651,651,651,651,651,651,651,651,650,650,650,650,650,650,650,651,652,653,653,654,655,655,656,656,656,656,657,657,658,658,658,658,658,658,659,660,660,660,660,660,660,660,659,660,660,660,660,660,660,661,661,661,661,662,662,663,663,664,665,666,668,670,672,674,677,679,682,684,685,687,689,691,693,695,698,699,701,703,705,709,714,720,727,733,741,751,758,760,764,768,773,781,798,811,823,837,841,860,879,898,916,929,935,921,900,880,859,843,854,845,837,822,810,799,790,779,769,763,759,754,750,747,744,743,742,740,741,744,750,755,760,770,780,788,792,794,792,788,789,790,799,806,812,815,812,799,781,768,759,752,746,743,742,741,741,741,742,743,745,747,750,753,755,755,753,751,751,752,753,754,757,757,757,758,760,763,766,771,774,776,779,780,782,782,781,781,783,785,788,791,794,796,798,800,800,807,813,818,820,830,838,845,852,859,863,869,876,879,879,879,880,883,890,900,912,924,939,947,949,945,939,940,948,960,982,1010,1040,1050,1059,1059,1059,1057,1061,1074,1095,1108,1114,1106,1122,1150,1176,1179,1168,1174,1182,1170,1163,1161,1177,1185,1181,1190,1193,1177,1168,1188,1223,1263,1298,1314,1289,1247,1207,1175,1151,1135,1136,1131,1121,1129,1155,1189,1230,1273,1309,1336,1360,1377,1380,1376,1374,1375,1380,1387,1392,1397,1399,1390,1378,1361,1346,1321,1298,1280,1276,1282,1298,1318,1329,1332,1313,1284,1261,1257,1255,1253,1271,1275,1277,1287,1297,1310,1323,1336,1333,1337,1339,1340,1348,1360,1371,1379,1378,1382,1397,1403,1416,1420,1420,1420,1425,1432,1437,1440,1450,1460,1468,1480,1491,1496,1500,1499,1479,1452,1407,1360,1320,1283,1246,1211,1173,1147,1135,1122,1106,1093,1077,1057,1026,1013,999,1005,1022,1044,1052,1058,1070,1083,1092,1080,1059,1041,1035,1042,1056,1067,1062,1050,1042,1056,1060,1064,1078,1079,1061,1041,1026,1005,980,973,979,988,1000,1017,1036,1058,1077,1088,1100,1117,1121,1121,1128,1138,1158,1179,1199,1217,1229,1255,1279,1297,1300,1301,1303,1299,1283,1276,1260,1255,1260,1276,1300,1322,1340,1352,1355,1328,1304,1293,1281,1298,1319,1341,1356,1342,1311,1347,1411,1474,1528,1570,1602,1621,1613,1585,1552,1523,1494,1453,1393,1324,1299,1303,1319,1332,1324,1323,1339,1331,1320,1318,1311,1285,1262,1266,1277,1267,1248,1238,1245,1242,1257,1261,1248,1232,1220,1214,1211,1210,1210,1211,1214,1217,1219,1220,1223,1227,1233,1239,1243,1244,1240,1239,1229,1217,1197,1180,1187,1200,1213,1219,1220,1215,1211,1212,1218,1204,1165,1116,1076,1049,1031,1030,1045,1068,1086,1086,1064,1033
527,538,548,560,565,559,546,537,520,514,519,528,540,552,561,569,569,559,550,546,548,561,575,592,600,600,597,599,601,606,606,601,605,611,616,621,639,650,653,647,639,629,619,612,613,613,614,614,616,619,619,616,615,614,616,619,623,628,634,640,651,659,661,661,660,654,648,643,639,637,634,634,635,637,640,645,650,655,658,659,660,660,660,660,659,658,658,658,660,663,669,674,679,681,681,681,680,679,679,679,679,679,680,680,681,681,681,680,680,680,679,679,679,678,677,676,675,674,673,671,669,667,665,664,662,661,660,658,656,655,654,653,652,651,651,650,650,650,650,650,650,650,651,651,652,652,653,654,654,654,654,653,653,653,653,653,653,652,651,650,650,650,650,650,650,650,650,650,650,649,649,649,649,649,649,649,649,649,649,650,650,651,651,652,652,652,651,651,651,651,650,650,650,649,650,650,651,652,653,654,655,655,656,656,657,657,657,657,658,658,659,659,658,658,658,659,659,659,660,660,660,660,660,660,660,660,660,660,660,660,661,661,661,661,662,662,663,663,664,665,666,668,670,672,674,677,680,682,683,685,687,689,691,693,695,698,699,701,702,704,706,710,714,720,725,732,739,742,750,759,765,771,780,798,818,837,849,858,881,899,917,937,958,965,945,920,898,878,864,876,871,859,840,822,809,797,780,769,764,760,756,753,751,749,747,746,744,745,747,752,756,760,766,773,780,785,789,793,796,799,800,805,812,821,829,833,824,803,783,769,759,752,747,746,745,744,744,744,745,746,747,749,750,752,752,751,751,751,752,752,753,755,756,758,759,759,759,760,764,767,770,773,776,779,780,779,780,782,786,789,793,796,797,798,798,802,807,813,819,819,820,823,838,852,859,860,859,860,860,860,863,877,880,887,901,921,942,958,957,951,946,939,940,949,960,978,999,1023,1043,1044,1060,1076,1079,1077,1086,1100,1111,1123,1129,1145,1174,1200,1212,1208,1208,1214,1201,1181,1181,1200,1217,1221,1233,1239,1225,1204,1203,1228,1268,1304,1318,1305,1272,1240,1219,1198,1179,1166,1160,1169,1187,1213,1242,1280,1320,1353,1377,1394,1403,1398,1382,1375,1380,1384,1388,1393,1401,1407,1398,1376,1356,1343,1314,1295,1288,1293,1307,1330,1350,1341,1322,1299,1280,1270,1272,1276,1274,1292,1291,1284,1297,1300,1308,1319,1320,1319,1320,1328,1333,1340,1347,1360,1371,1380,1396,1407,1418,1431,1438,1434,1432,1439,1451,1443,1440,1447,1454,1460,1478,1488,1495,1499,1498,1476,1451,1403,1349,1304,1264,1232,1215,1194,1180,1172,1160,1139,1116,1097,1073,1038,1018,1000,1005,1023,1048,1065,1077,1094,1111,1112,1098,1079,1062,1056,1066,1074,1084,1085,1072,1061,1069,1077,1083,1100,1104,1084,1062,1039,1011,983,975,981,988,999,1013,1026,1048,1067,1081,1097,1111,1119,1119,1120,1122,1139,1159,1180,1200,1218,1232,1264,1283,1296,1300,1308,1308,1297,1282,1268,1259,1256,1263,1287,1310,1328,1340,1340,1315,1295,1280,1286,1297,1301,1316,1331,1317,1307,1371,1445,1509,1561,1603,1638,1663,1657,1623,1582,1547,1515,1475,1416,1342,1301,1298,1308,1318,1316,1317,1328,1339,1340,1335,1319,1292,1273,1282,1298,1296,1277,1290,1269,1257,1260,1259,1242,1229,1220,1215,1213,1213,1213,1215,1217,1220,1222,1224,1228,1233,1240,1245,1246,1245,1240,1237,1219,1202,1189,1179,1179,1192,1208,1211,1219,1210,1200,1194,1198,1188,1150,1101,1060,1032,1014,1002,1025,1044,1059,1050,1028,1003
521,537,542,558,565,559,542,529,519,516,520,530,541,558,572,579,579,569,561,562,573,578,580,591,599,599,600,608,618,620,620,619,619,619,619,621,638,652,659,653,641,631,620,616,619,620,619,617,620,622,622,620,619,619,620,623,626,631,639,649,660,672,678,678,672,660,651,646,642,640,637,635,635,637,639,644,648,653,656,658,659,660,660,659,659,659,659,660,662,665,670,674,678,680,681,681,680,679,679,679,679,679,680,680,680,680,680,680,680,679,679,679,678,678,677,676,674,673,671,670,668,666,664,663,662,660,659,658,656,655,654,653,652,651,651,651,650,650,650,650,651,651,651,652,653,653,654,655,655,656,655,655,655,655,655,654,653,652,651,651,650,650,650,650,650,650,650,650,649,649,649,649,648,648,648,648,649,649,649,650,650,651,652,652,652,652,652,651,651,651,650,650,650,650,650,650,651,652,653,654,655,656,657,657,657,657,657,658,658,659,659,659,659,659,658,659,659,659,660,660,660,660,660,660,660,660,660,660,660,661,661,661,661,661,662,662,663,663,664,665,666,668,670,672,674,677,680,681,683,685,686,689,691,693,695,698,700,701,702,703,704,707,710,715,719,725,730,733,740,750,758,766,772,788,808,829,845,861,879,916,936,963,988,994,971,940,917,898,886,897,896,881,858,836,818,800,782,772,767,763,759,756,755,754,752,751,750,750,752,755,759,762,766,770,775,780,786,794,799,804,807,813,822,837,849,862,856,833,807,784,769,759,753,751,750,749,748,747,747,747,747,748,749,750,750,750,750,751,751,752,753,754,756,758,759,759,759,758,760,762,763,766,770,774,777,778,779,783,786,791,795,798,799,800,802,803,806,809,814,818,813,814,826,847,854,857,843,839,839,841,849,861,870,881,902,930,955,960,952,941,938,932,939,952,960,973,983,1002,1022,1038,1060,1084,1098,1103,1104,1114,1128,1142,1156,1171,1197,1223,1245,1254,1254,1256,1243,1219,1214,1233,1256,1265,1278,1285,1273,1245,1224,1229,1260,1295,1316,1318,1301,1285,1274,1256,1233,1213,1209,1229,1253,1275,1296,1325,1355,1381,1399,1407,1418,1411,1396,1383,1395,1400,1401,1403,1417,1418,1397,1366,1346,1320,1303,1294,1303,1321,1337,1355,1354,1335,1309,1284,1276,1279,1290,1302,1313,1324,1318,1305,1302,1300,1306,1316,1320,1320,1324,1329,1334,1339,1341,1358,1368,1380,1396,1407,1420,1438,1448,1447,1444,1455,1476,1469,1460,1459,1460,1461,1478,1486,1493,1498,1500,1490,1458,1413,1364,1323,1286,1261,1245,1235,1231,1224,1209,1181,1148,1119,1088,1049,1028,1001,1004,1027,1048,1064,1088,1125,1139,1132,1114,1100,1091,1091,1098,1100,1100,1098,1087,1078,1080,1090,1100,1117,1112,1103,1082,1054,1023,995,988,978,986,1001,1019,1036,1049,1060,1071,1082,1098,1112,1121,1133,1137,1141,1153,1170,1193,1213,1237,1256,1291,1299,1307,1316,1319,1311,1298,1281,1267,1260,1262,1280,1300,1316,1331,1337,1307,1289,1297,1334,1354,1325,1301,1312,1300,1315,1390,1466,1530,1583,1629,1670,1702,1702,1664,1616,1572,1533,1494,1441,1372,1308,1299,1300,1305,1310,1317,1332,1351,1358,1348,1324,1299,1283,1302,1322,1321,1320,1302,1272,1258,1254,1250,1240,1229,1220,1217,1216,1216,1217,1217,1219,1222,1225,1229,1234,1239,1247,1250,1247,1245,1237,1222,1203,1189,1179,1168,1162,1181,1202,1219,1214,1200,1192,1190,1175,1160,1125,1083,1046,1020,998,982,992,1020,1024,1009,991,977
510,520,531,543,557,552,536,521,518,520,528,539,548,560,577,583,585,581,579,579,584,586,585,590,595,596,600,612,621,632,638,638,632,629,627,629,639,653,660,659,650,639,628,620,622,623,622,620,626,629,629,628,628,628,629,630,630,633,640,658,670,679,682,679,678,661,653,648,644,642,639,637,636,637,639,643,647,651,654,657,658,659,659,659,659,659,660,661,663,665,668,672,675,677,679,680,680,680,680,679,680,680,679,680,680,680,680,680,679,679,679,679,678,677,676,675,673,672,670,668,666,665,663,662,661,660,659,657,656,655,654,653,652,651,651,651,651,651,651,651,651,652,652,653,653,654,655,656,657,657,657,657,657,657,656,655,654,652,651,651,651,650,650,650,650,650,650,649,649,649,648,648,648,648,648,648,649,649,650,650,651,652,652,653,653,652,652,652,651,651,650,650,650,650,650,650,651,652,653,654,656,657,657,658,658,658,658,658,659,659,660,660,660,659,659,659,659,659,659,660,660,660,660,660,660,660,660,660,661,661,661,661,661,662,662,663,663,664,664,665,666,668,670,672,674,677,679,681,682,684,686,688,690,693,695,697,699,700,701,702,703,705,708,711,715,720,724,727,733,739,743,757,761,775,793,814,834,857,878,900,956,988,1013,1017,992,957,933,919,909,911,908,895,867,840,822,810,798,784,779,770,764,760,759,758,757,756,755,754,755,757,760,763,766,770,775,779,784,794,800,806,813,821,837,851,866,878,878,860,836,809,784,769,761,759,755,754,752,751,750,749,748,748,749,749,750,750,750,751,751,751,752,754,756,758,759,759,759,758,759,759,760,760,765,770,774,777,780,783,787,791,796,800,801,799,799,799,799,800,800,801,799,801,817,834,838,837,829,821,821,827,838,849,860,877,897,920,940,943,927,920,918,914,933,955,966,979,986,1001,1021,1041,1066,1095,1118,1132,1133,1143,1159,1175,1187,1200,1223,1251,1280,1302,1309,1309,1291,1270,1262,1278,1296,1306,1317,1325,1311,1282,1253,1244,1262,1287,1314,1327,1330,1331,1331,1318,1294,1269,1263,1285,1312,1332,1343,1359,1381,1402,1417,1420,1423,1419,1409,1404,1418,1428,1429,1422,1424,1417,1389,1356,1327,1302,1300,1305,1329,1355,1369,1367,1344,1313,1286,1278,1281,1298,1321,1335,1354,1364,1345,1326,1312,1307,1309,1319,1330,1338,1339,1336,1339,1344,1350,1359,1366,1374,1384,1402,1420,1440,1460,1472,1466,1492,1497,1487,1478,1473,1477,1475,1481,1486,1492,1499,1507,1500,1469,1430,1394,1361,1331,1312,1295,1282,1276,1259,1241,1207,1166,1128,1091,1053,1024,1000,1000,1021,1047,1065,1092,1137,1158,1153,1140,1130,1127,1132,1138,1131,1121,1113,1102,1092,1091,1099,1108,1119,1119,1112,1098,1071,1039,1007,983,979,989,1006,1022,1040,1058,1062,1069,1078,1088,1108,1121,1137,1149,1157,1163,1180,1199,1218,1240,1260,1297,1300,1308,1319,1319,1319,1311,1297,1281,1273,1278,1284,1298,1317,1338,1338,1311,1292,1332,1394,1414,1378,1317,1300,1300,1333,1411,1481,1539,1592,1643,1692,1729,1736,1701,1648,1596,1551,1511,1462,1393,1319,1298,1294,1298,1308,1320,1339,1358,1359,1348,1329,1309,1302,1323,1336,1316,1311,1290,1264,1252,1245,1240,1239,1228,1220,1218,1219,1219,1219,1218,1219,1223,1228,1233,1239,1242,1253,1248,1240,1237,1223,1212,1199,1181,1168,1158,1160,1178,1197,1208,1199,1182,1168,1160,1140,1124,1095,1064,1038,1016,990,972,981,998,987,966,952,945
496,503,517,530,539,535,520,515,519,529,540,549,553,558,568,580,592,598,598,593,591,592,590,591,593,595,600,618,628,639,647,649,642,640,640,640,642,658,667,667,659,650,639,631,630,630,630,630,638,640,640,640,639,639,639,639,635,635,641,659,673,680,682,680,676,661,654,650,646,643,640,638,637,638,640,643,646,650,653,656,658,659,659,659,659,659,660,661,662,664,666,668,671,674,677,679,680,680,680,680,680,679,679,679,680,680,680,680,680,680,679,679,678,677,676,674,672,670,669,667,665,664,662,661,659,659,658,657,655,654,653,653,652,652,651,651,651,651,651,652,652,652,653,653,654,655,655,657,658,659,660,660,660,659,658,656,654,653,652,651,651,651,651,651,650,650,650,649,649,649,648,648,648,647,647,648,648,649,650,651,652,652,653,653,653,653,652,652,651,651,650,650,650,650,649,650,651,652,653,655,656,657,658,659,659,659,659,658,659,659,660,660,660,660,660,659,659,659,659,660,660,660,660,660,660,660,660,661,661,661,661,661,662,662,662,663,663,664,664,665,666,668,670,672,674,676,678,680,681,683,685,687,689,692,694,697,698,699,700,701,702,704,706,709,713,716,720,723,728,734,739,749,758,767,781,799,820,843,866,890,924,993,1009,1021,1010,977,949,937,926,920,913,897,869,846,840,833,826,810,797,781,770,764,761,760,759,759,758,757,758,759,762,765,768,772,775,777,781,798,802,808,819,829,840,851,862,879,889,880,860,834,805,783,776,767,760,759,757,754,753,751,750,749,749,749,750,750,751,751,751,752,753,754,756,757,759,759,759,759,759,760,759,760,763,768,772,776,780,783,786,790,794,799,790,789,781,781,788,790,790,791,791,793,801,810,812,812,816,813,817,820,827,839,849,861,879,899,916,916,903,898,899,902,916,942,961,979,992,1013,1033,1056,1086,1117,1144,1165,1173,1185,1205,1217,1225,1237,1260,1288,1321,1352,1369,1367,1347,1329,1322,1331,1335,1338,1346,1355,1340,1317,1292,1278,1287,1304,1329,1344,1358,1372,1383,1376,1351,1323,1309,1324,1350,1370,1377,1384,1401,1420,1428,1429,1429,1426,1426,1431,1445,1456,1455,1441,1427,1409,1384,1360,1333,1306,1305,1328,1358,1381,1380,1356,1321,1295,1280,1288,1302,1326,1349,1371,1393,1399,1388,1350,1331,1319,1314,1321,1338,1345,1346,1341,1344,1349,1353,1361,1369,1380,1396,1415,1428,1446,1473,1493,1520,1522,1518,1501,1487,1482,1495,1492,1497,1493,1494,1501,1518,1517,1493,1459,1431,1404,1379,1361,1339,1319,1301,1279,1245,1204,1160,1119,1086,1050,1020,1000,1006,1020,1045,1063,1086,1123,1149,1159,1160,1162,1164,1172,1175,1164,1145,1132,1121,1113,1101,1105,1110,1119,1122,1113,1089,1065,1038,1008,987,984,992,1003,1021,1039,1054,1060,1073,1087,1103,1118,1124,1134,1156,1170,1182,1197,1207,1221,1240,1258,1271,1297,1302,1312,1320,1325,1321,1310,1298,1282,1278,1280,1290,1304,1327,1320,1327,1294,1362,1424,1412,1398,1332,1296,1311,1363,1435,1496,1546,1597,1650,1707,1749,1762,1728,1673,1614,1564,1522,1475,1408,1332,1301,1293,1297,1309,1321,1339,1351,1349,1339,1321,1312,1311,1321,1326,1285,1282,1273,1259,1247,1240,1236,1233,1226,1220,1219,1220,1220,1221,1220,1220,1226,1233,1240,1251,1258,1254,1241,1230,1220,1209,1202,1196,1178,1158,1142,1155,1170,1183,1196,1181,1161,1142,1126,1107,1094,1070,1046,1026,1007,984,961,976,986,951,929,921,920
480,489,500,515,518,509,501,509,520,538,552,559,559,560,572,583,599,609,609,600,596,599,595,594,595,595,600,618,627,640,651,659,659,659,659,659,660,667,678,675,667,659,647,640,639,639,639,640,646,652,658,658,652,649,648,646,640,639,645,660,678,684,685,683,679,667,659,652,647,643,640,638,637,638,639,642,646,649,653,655,657,658,659,659,659,659,659,660,661,661,662,664,666,670,674,677,677,680,680,680,680,679,679,679,679,679,680,680,680,680,680,679,678,677,675,673,671,669,667,665,664,662,661,660,659,658,657,656,655,654,653,653,652,652,652,652,652,652,652,652,653,653,654,654,655,656,656,658,659,662,663,664,664,662,660,657,655,653,652,652,652,652,652,651,651,650,650,650,650,649,649,648,648,648,647,647,648,649,650,651,652,653,653,654,653,653,653,652,651,651,651,650,650,650,650,650,651,652,654,655,657,658,659,659,660,659,659,659,659,659,659,660,660,660,660,660,659,659,659,659,660,660,660,660,660,660,660,661,661,661,661,662,662,662,663,663,664,664,665,666,667,668,670,671,674,676,678,679,681,682,684,686,688,691,693,695,697,698,699,700,701,703,705,708,711,715,719,722,726,731,735,740,750,760,775,788,806,825,848,873,905,985,1005,1029,1031,1004,976,958,941,929,918,900,880,872,875,869,859,841,820,799,780,769,763,760,760,760,760,759,760,762,764,767,771,776,779,780,788,797,800,806,819,830,840,851,861,880,898,898,881,854,821,795,781,772,765,762,759,757,756,754,752,751,750,751,751,752,752,752,752,752,753,754,756,757,759,760,760,760,759,760,760,760,763,767,771,776,780,783,784,785,787,789,781,782,779,778,782,784,785,787,789,792,796,797,798,799,800,807,814,819,820,827,837,841,854,870,887,888,881,880,890,900,918,945,967,986,1002,1018,1032,1066,1103,1142,1177,1204,1218,1238,1260,1270,1278,1292,1313,1337,1372,1406,1426,1423,1404,1391,1383,1378,1368,1363,1372,1383,1368,1354,1339,1325,1326,1338,1360,1372,1386,1405,1419,1420,1397,1366,1341,1338,1359,1379,1393,1403,1421,1437,1440,1440,1441,1444,1450,1462,1476,1480,1471,1454,1431,1406,1390,1372,1344,1321,1331,1357,1381,1398,1377,1338,1305,1293,1298,1314,1335,1360,1381,1408,1429,1431,1417,1396,1354,1337,1322,1325,1339,1349,1355,1358,1355,1359,1363,1376,1380,1388,1402,1421,1440,1460,1487,1532,1552,1557,1546,1522,1502,1501,1515,1517,1516,1502,1500,1508,1520,1527,1514,1490,1468,1442,1418,1394,1364,1333,1300,1262,1222,1180,1138,1098,1073,1042,1019,1004,1017,1023,1041,1059,1079,1104,1131,1149,1165,1183,1188,1194,1198,1188,1170,1156,1140,1123,1112,1119,1120,1120,1131,1127,1097,1069,1034,1003,989,989,999,1015,1027,1040,1054,1061,1078,1096,1116,1123,1130,1143,1161,1180,1197,1203,1209,1219,1236,1251,1262,1277,1296,1301,1317,1329,1338,1323,1315,1296,1280,1279,1289,1303,1324,1336,1314,1297,1359,1410,1421,1386,1320,1281,1321,1392,1459,1512,1559,1606,1656,1712,1760,1769,1747,1694,1633,1579,1535,1490,1430,1359,1320,1306,1300,1317,1328,1339,1344,1340,1334,1320,1314,1313,1309,1279,1262,1260,1259,1251,1244,1239,1235,1231,1225,1220,1221,1223,1225,1228,1229,1230,1232,1239,1248,1259,1260,1250,1235,1219,1201,1190,1186,1180,1167,1148,1135,1140,1157,1166,1175,1161,1140,1120,1100,1081,1068,1047,1026,1005,995,974,958,961,968,949,914,914,919
472,479,481,491,497,495,496,508,522,541,558,563,564,571,583,598,610,619,619,609,601,609,600,600,599,599,603,613,621,638,649,659,664,668,673,678,680,685,688,680,671,660,653,649,649,647,647,649,653,660,668,667,661,660,660,659,650,645,648,660,679,685,686,684,680,669,660,653,648,644,641,639,638,638,640,642,646,649,652,655,657,658,659,659,659,659,659,659,659,660,659,660,662,666,670,674,675,679,681,680,679,679,678,678,679,679,679,680,680,680,680,680,678,676,674,672,669,667,666,664,663,661,660,659,658,657,656,655,655,654,654,653,653,652,652,652,653,653,653,654,654,654,654,655,656,657,658,659,660,664,667,669,669,667,663,660,656,654,654,654,654,653,653,652,652,651,651,651,651,651,650,649,649,648,648,648,648,649,651,652,653,654,654,654,654,653,653,652,652,651,651,650,650,650,650,651,651,653,654,655,657,658,659,660,660,660,660,660,659,660,660,660,660,660,660,660,660,660,659,659,659,660,660,660,660,660,661,661,661,661,662,662,662,663,663,663,664,664,665,666,667,668,670,671,673,675,677,678,680,681,682,684,687,689,692,694,696,697,698,700,701,703,705,707,710,713,717,720,725,731,735,740,749,760,778,787,799,816,833,856,887,925,1003,1040,1055,1030,1002,979,957,938,922,910,901,901,910,900,886,868,844,817,791,775,765,761,759,759,760,761,762,764,767,770,774,779,786,793,799,799,797,801,818,832,841,858,870,883,900,906,900,875,841,809,790,779,772,766,762,760,759,757,754,753,752,753,753,753,753,753,753,753,754,755,756,757,759,759,760,760,760,760,760,760,762,766,770,775,779,780,780,780,780,777,778,779,779,779,780,781,783,787,791,795,799,798,799,802,816,819,821,829,821,820,822,827,835,844,860,867,870,877,891,906,923,949,976,1000,1020,1037,1054,1087,1129,1175,1218,1251,1270,1294,1317,1328,1339,1354,1371,1392,1419,1451,1467,1467,1453,1443,1432,1416,1396,1389,1398,1405,1397,1398,1391,1375,1364,1371,1391,1399,1410,1425,1438,1439,1423,1394,1365,1351,1362,1383,1403,1419,1437,1444,1452,1458,1460,1464,1473,1489,1503,1499,1479,1453,1434,1419,1400,1376,1348,1335,1357,1379,1381,1391,1365,1332,1307,1304,1322,1344,1371,1399,1422,1445,1463,1458,1439,1419,1400,1358,1339,1333,1340,1352,1360,1365,1363,1376,1382,1396,1399,1402,1418,1438,1458,1479,1505,1561,1581,1593,1581,1552,1527,1522,1530,1533,1530,1520,1518,1520,1531,1538,1525,1511,1494,1469,1441,1408,1365,1320,1274,1230,1190,1152,1122,1086,1059,1036,1018,1007,1020,1036,1049,1061,1078,1096,1120,1138,1152,1166,1183,1193,1200,1199,1181,1167,1156,1137,1124,1137,1137,1131,1139,1125,1093,1064,1032,1004,992,992,997,1003,1022,1035,1057,1066,1076,1085,1105,1117,1134,1152,1166,1180,1192,1197,1199,1203,1221,1242,1258,1268,1273,1283,1302,1322,1339,1330,1319,1301,1286,1282,1299,1318,1339,1355,1326,1301,1314,1343,1360,1333,1294,1281,1345,1416,1478,1526,1568,1610,1657,1711,1760,1775,1757,1707,1648,1594,1548,1507,1460,1404,1354,1338,1301,1318,1330,1340,1343,1342,1339,1329,1322,1319,1306,1272,1254,1248,1246,1243,1240,1237,1234,1231,1226,1223,1224,1227,1231,1235,1239,1239,1237,1240,1250,1259,1260,1249,1230,1209,1184,1170,1162,1159,1156,1140,1126,1122,1138,1147,1149,1138,1121,1101,1079,1060,1044,1025,1001,983,976,960,947,941,941,924,914,920,929
466,470,472,477,480,486,492,501,518,536,549,558,561,577,595,603,611,620,623,619,614,619,612,609,606,604,606,612,619,631,640,650,659,668,680,689,695,699,699,691,679,666,660,659,659,654,654,659,661,668,678,681,680,680,680,677,662,652,652,661,678,683,684,683,679,670,660,653,648,645,642,641,640,639,640,644,647,650,653,655,657,658,659,659,659,659,659,659,659,658,658,658,660,662,666,665,670,676,679,679,678,677,677,678,678,678,679,679,680,680,680,679,677,675,672,670,668,666,664,663,661,660,660,659,658,656,656,655,655,654,654,653,653,653,653,653,654,654,654,655,655,655,656,656,658,659,660,663,666,671,673,674,674,672,668,664,660,656,656,656,656,655,654,653,653,653,653,653,653,652,652,651,650,649,648,648,648,649,650,653,654,655,655,655,655,654,653,653,652,652,651,651,651,651,651,651,652,653,654,656,657,658,659,660,660,660,660,660,660,660,660,660,660,660,660,660,660,660,660,660,660,659,660,660,660,660,661,661,661,662,662,662,663,663,663,664,664,665,666,666,667,668,669,671,673,674,676,677,678,679,681,683,685,688,691,693,695,698,699,700,701,702,704,706,709,712,715,720,727,735,740,744,751,760,776,784,792,802,822,849,878,909,954,1045,1058,1045,1021,995,967,944,937,928,926,924,935,922,905,892,866,833,801,779,767,760,758,759,760,763,765,768,770,772,775,780,787,799,802,799,800,808,823,838,847,860,879,896,906,917,916,890,853,819,799,789,781,772,766,764,763,759,756,754,754,755,756,756,755,755,754,754,755,755,756,757,758,759,759,759,759,759,759,760,762,765,768,772,775,776,777,777,777,779,780,780,781,782,782,782,784,789,795,799,803,803,804,810,819,831,838,841,838,835,823,827,832,839,852,860,869,880,894,912,934,954,986,1018,1046,1068,1085,1116,1161,1212,1262,1300,1325,1350,1368,1378,1386,1394,1404,1423,1439,1456,1464,1476,1478,1465,1458,1442,1425,1422,1428,1429,1424,1437,1436,1418,1395,1392,1399,1406,1419,1428,1438,1439,1422,1398,1378,1363,1376,1397,1416,1424,1434,1441,1458,1470,1478,1483,1499,1516,1522,1515,1489,1462,1444,1434,1410,1376,1346,1355,1380,1395,1397,1383,1362,1339,1322,1331,1356,1378,1407,1435,1460,1475,1482,1476,1455,1440,1426,1382,1358,1342,1344,1358,1370,1378,1380,1388,1398,1410,1418,1424,1440,1458,1479,1503,1564,1588,1608,1625,1615,1586,1560,1551,1552,1552,1547,1536,1531,1532,1541,1550,1538,1518,1500,1479,1446,1405,1356,1303,1250,1202,1164,1133,1103,1071,1048,1025,1015,1011,1020,1040,1058,1069,1086,1104,1120,1133,1141,1152,1163,1178,1188,1197,1181,1168,1159,1147,1142,1156,1151,1141,1141,1131,1101,1068,1039,1016,999,997,999,998,1004,1026,1051,1066,1081,1098,1116,1104,1134,1153,1166,1177,1178,1173,1182,1193,1212,1235,1248,1256,1260,1269,1300,1320,1334,1330,1320,1309,1299,1300,1316,1329,1342,1359,1344,1318,1300,1290,1296,1287,1280,1292,1353,1424,1481,1527,1564,1605,1652,1703,1753,1778,1764,1718,1661,1606,1559,1521,1484,1443,1394,1341,1302,1316,1328,1339,1342,1341,1340,1339,1339,1335,1321,1288,1261,1244,1239,1239,1238,1236,1234,1232,1229,1227,1228,1230,1235,1239,1242,1242,1240,1244,1252,1259,1260,1248,1227,1205,1180,1160,1148,1141,1140,1131,1119,1109,1118,1121,1120,1113,1106,1088,1062,1040,1022,1000,979,963,957,942,935,922,920,919,917,922,940
464,468,471,475,479,485,493,499,510,521,531,544,557,562,576,588,600,617,624,623,620,622,620,619,613,611,611,614,620,627,634,640,649,660,678,691,699,699,702,698,683,672,668,667,666,661,660,669,677,676,683,697,699,699,698,690,677,662,660,666,677,680,681,680,676,668,660,654,649,646,644,643,642,642,642,646,649,652,654,656,657,658,659,659,659,659,659,658,658,657,657,657,658,660,659,660,664,670,674,675,675,675,676,676,677,677,678,679,679,679,678,677,675,673,670,668,666,664,662,661,660,660,659,658,657,656,655,655,655,654,654,654,654,654,654,654,655,655,656,656,657,657,657,658,660,662,665,669,674,679,679,678,679,677,674,669,664,660,659,660,659,658,656,655,654,654,654,655,655,655,654,653,651,650,650,649,649,650,651,653,655,656,656,656,655,655,654,653,653,652,652,652,651,651,651,652,653,654,655,656,657,658,659,660,660,660,660,661,661,661,661,661,661,661,661,660,660,660,660,660,660,659,660,660,660,661,661,661,662,662,662,663,663,664,664,664,665,665,666,667,668,669,669,671,672,674,675,676,677,678,680,681,684,686,689,692,695,697,699,700,700,701,703,705,707,710,714,720,729,739,744,749,753,756,762,779,788,800,820,846,873,900,943,996,1038,1058,1036,1005,978,958,949,946,943,940,944,938,921,904,879,844,807,781,767,760,758,759,761,765,769,773,774,775,776,777,780,793,799,800,805,819,837,846,851,860,878,890,902,919,919,897,860,823,806,799,796,782,773,769,768,760,756,755,756,758,758,758,757,756,756,756,756,756,757,757,758,758,758,758,758,758,759,760,762,766,768,769,771,774,776,779,780,784,787,788,789,789,788,786,787,792,799,803,807,809,811,820,831,841,862,862,861,857,846,840,839,845,858,868,880,896,918,934,947,967,999,1037,1072,1097,1119,1152,1198,1252,1304,1343,1371,1392,1399,1399,1398,1385,1388,1397,1407,1415,1424,1436,1444,1446,1458,1459,1450,1455,1458,1451,1441,1458,1450,1441,1414,1400,1399,1400,1412,1420,1430,1428,1415,1392,1385,1379,1382,1399,1411,1422,1438,1448,1461,1478,1491,1502,1518,1533,1538,1522,1501,1480,1462,1446,1418,1378,1350,1359,1387,1400,1400,1390,1378,1358,1346,1364,1392,1413,1434,1462,1485,1498,1499,1491,1480,1467,1455,1435,1378,1357,1349,1360,1378,1390,1398,1401,1413,1427,1440,1453,1469,1483,1504,1565,1593,1614,1636,1643,1638,1612,1591,1582,1579,1577,1566,1550,1541,1540,1555,1557,1533,1505,1484,1463,1432,1390,1340,1286,1233,1185,1145,1117,1096,1076,1056,1036,1020,1014,1021,1038,1058,1072,1091,1115,1129,1139,1144,1152,1160,1171,1178,1180,1180,1177,1162,1154,1158,1166,1161,1151,1139,1117,1085,1058,1039,1019,1000,999,1005,1000,1001,1015,1032,1056,1079,1090,1091,1110,1135,1151,1162,1175,1163,1157,1167,1182,1199,1217,1225,1230,1240,1258,1297,1317,1329,1330,1326,1319,1310,1310,1320,1331,1340,1355,1359,1343,1322,1309,1308,1298,1290,1307,1360,1425,1479,1520,1556,1596,1644,1694,1745,1777,1764,1723,1669,1616,1571,1532,1500,1468,1423,1363,1305,1306,1320,1334,1340,1343,1342,1342,1341,1331,1328,1299,1270,1244,1236,1236,1238,1237,1235,1233,1231,1229,1229,1232,1235,1240,1242,1245,1247,1250,1255,1260,1259,1241,1222,1203,1182,1164,1147,1137,1132,1125,1113,1094,1097,1097,1098,1097,1096,1077,1049,1022,999,979,962,956,942,928,920,916,920,928,930,938,950
468,472,478,483,487,490,499,501,508,517,522,531,546,554,560,564,578,599,617,623,624,628,630,629,621,619,620,621,624,629,634,637,640,650,669,685,695,699,702,703,697,683,681,680,680,678,672,679,684,683,697,708,711,709,700,695,686,678,672,675,679,681,681,679,675,667,660,654,651,648,647,645,645,645,645,647,651,653,655,657,658,659,659,659,659,659,658,658,657,657,656,656,657,656,656,657,660,664,668,670,672,673,673,674,675,676,676,677,677,677,676,674,672,670,667,665,663,662,661,660,659,659,658,657,656,656,655,655,655,655,655,655,655,655,655,655,656,657,658,658,658,658,658,660,662,666,670,675,680,684,683,680,680,680,679,675,672,667,665,664,662,660,658,656,656,656,656,657,657,657,656,655,654,653,652,651,651,651,653,654,657,658,658,657,656,655,655,654,654,653,653,652,652,652,652,652,653,654,655,656,657,658,659,660,660,660,661,661,661,661,661,661,661,661,661,661,661,660,660,660,660,660,660,660,661,661,661,662,662,662,663,663,664,664,664,665,665,666,666,667,668,669,670,671,672,673,675,676,677,678,679,680,683,685,688,691,694,697,698,699,700,701,702,704,707,710,714,720,727,735,740,753,759,760,769,779,788,800,819,840,862,887,928,982,1054,1058,1046,1014,983,961,957,959,955,950,946,938,927,913,884,843,805,780,768,762,759,759,762,768,774,779,780,780,779,778,780,790,799,803,809,820,839,849,854,860,873,882,901,920,921,901,863,827,811,806,804,797,782,776,779,769,759,758,758,759,760,759,759,758,757,757,757,757,757,758,758,758,758,757,758,758,760,761,765,770,771,769,770,775,779,786,787,793,799,799,799,800,799,795,792,796,801,806,812,819,822,837,853,870,883,897,894,887,873,860,851,850,860,879,900,922,943,962,980,1001,1028,1062,1097,1127,1156,1193,1240,1289,1335,1371,1395,1406,1399,1384,1370,1354,1349,1351,1356,1361,1369,1379,1393,1407,1431,1452,1457,1459,1459,1455,1441,1445,1441,1433,1416,1400,1399,1403,1412,1419,1427,1421,1409,1396,1380,1380,1395,1408,1420,1434,1449,1460,1468,1480,1499,1516,1527,1539,1543,1531,1514,1499,1483,1462,1431,1391,1359,1356,1380,1399,1401,1402,1404,1386,1375,1396,1425,1443,1441,1464,1492,1503,1508,1505,1508,1501,1484,1459,1426,1363,1352,1362,1382,1401,1417,1421,1433,1452,1472,1490,1507,1516,1571,1597,1623,1647,1668,1672,1649,1620,1603,1599,1591,1585,1578,1559,1547,1541,1558,1544,1515,1482,1456,1442,1419,1375,1321,1265,1215,1168,1126,1099,1081,1067,1050,1033,1020,1014,1017,1030,1054,1069,1090,1117,1131,1140,1148,1159,1168,1174,1179,1183,1187,1186,1176,1161,1169,1179,1177,1159,1139,1113,1077,1047,1037,1018,1000,1000,1011,1017,1018,1021,1031,1042,1060,1081,1081,1098,1119,1138,1147,1150,1139,1132,1146,1164,1177,1189,1193,1201,1215,1239,1261,1301,1318,1326,1327,1324,1319,1316,1320,1326,1331,1342,1355,1359,1350,1338,1327,1315,1300,1312,1358,1423,1475,1513,1549,1588,1632,1681,1732,1766,1763,1730,1680,1628,1581,1538,1505,1475,1429,1367,1310,1303,1319,1331,1339,1342,1341,1340,1340,1338,1323,1301,1278,1256,1240,1237,1239,1238,1236,1234,1232,1230,1229,1230,1234,1239,1244,1249,1255,1259,1260,1262,1259,1241,1228,1217,1197,1178,1158,1140,1128,1116,1096,1081,1077,1071,1073,1078,1077,1060,1036,1008,983,962,948,941,935,920,916,921,936,943,944,948,958
477,483,495,507,501,496,502,516,523,529,530,538,549,559,560,558,561,581,601,616,624,633,639,640,637,630,637,638,633,634,639,639,636,641,660,678,687,694,700,706,707,702,707,702,700,696,683,691,699,701,709,719,721,715,706,699,689,680,677,679,681,682,681,679,674,666,659,655,652,650,648,647,647,647,647,649,651,655,657,658,658,659,659,659,659,659,658,657,657,656,656,655,655,654,654,655,657,660,663,666,668,670,671,672,673,673,674,674,674,673,672,670,669,666,664,663,661,661,660,659,658,658,657,656,656,655,655,655,656,656,656,656,656,656,656,656,657,658,659,659,659,659,660,661,665,669,674,679,684,689,690,688,688,687,684,680,679,675,671,668,665,662,660,658,658,658,658,658,659,659,658,657,656,655,655,654,654,654,655,657,659,660,659,658,657,656,656,655,655,654,654,653,653,652,652,653,653,654,655,656,657,658,659,659,660,660,661,661,661,662,662,662,662,662,662,661,661,661,661,661,661,660,661,661,661,661,662,662,663,663,664,664,664,664,665,665,666,666,667,668,669,669,670,671,672,674,675,676,677,678,679,680,682,685,688,690,693,695,697,698,699,701,702,704,706,710,714,719,726,732,740,758,764,770,779,782,788,800,819,839,856,878,916,966,1014,1058,1049,1022,991,969,960,961,960,953,940,923,918,902,873,835,801,779,771,765,762,761,764,770,779,789,789,786,783,780,780,789,799,804,810,820,839,853,860,869,879,891,910,931,937,914,872,837,819,812,810,806,796,783,784,778,761,761,759,758,759,760,759,759,758,758,758,758,758,758,759,760,760,757,758,759,762,765,772,780,780,773,773,780,801,801,801,802,808,807,808,812,818,813,806,811,817,815,819,828,840,861,884,908,928,946,940,926,907,888,870,861,868,890,919,945,971,1001,1027,1049,1068,1095,1127,1159,1194,1232,1271,1307,1344,1373,1384,1394,1378,1353,1333,1316,1303,1303,1309,1314,1319,1328,1346,1365,1392,1417,1429,1431,1425,1421,1412,1410,1405,1406,1401,1399,1401,1409,1419,1423,1438,1436,1419,1402,1390,1388,1402,1420,1439,1455,1474,1479,1480,1482,1499,1514,1523,1539,1545,1539,1522,1510,1490,1469,1432,1393,1362,1360,1380,1404,1408,1426,1434,1417,1406,1427,1456,1471,1458,1467,1484,1503,1520,1529,1538,1533,1513,1482,1441,1401,1360,1375,1397,1419,1437,1445,1464,1486,1512,1532,1548,1554,1605,1628,1653,1674,1688,1677,1641,1605,1588,1585,1579,1577,1569,1555,1555,1540,1538,1518,1486,1449,1418,1404,1393,1360,1308,1252,1202,1158,1119,1089,1074,1058,1040,1027,1019,1013,1014,1023,1043,1063,1089,1117,1133,1140,1150,1160,1177,1181,1187,1192,1199,1196,1181,1176,1184,1191,1180,1160,1140,1117,1086,1059,1039,1018,1002,1000,1017,1031,1039,1039,1040,1040,1042,1059,1068,1080,1095,1114,1124,1121,1115,1105,1124,1137,1148,1158,1164,1178,1198,1224,1246,1263,1300,1317,1324,1324,1320,1317,1317,1319,1320,1328,1339,1345,1358,1357,1338,1319,1301,1302,1335,1407,1465,1504,1538,1575,1618,1667,1717,1755,1763,1738,1691,1640,1593,1551,1515,1481,1434,1368,1314,1302,1315,1328,1339,1340,1340,1340,1339,1331,1317,1298,1280,1259,1245,1240,1241,1240,1237,1235,1233,1230,1228,1226,1228,1231,1239,1248,1259,1265,1266,1264,1257,1240,1228,1217,1199,1180,1160,1140,1120,1101,1081,1068,1060,1055,1056,1058,1051,1039,1020,999,979,958,939,927,920,918,921,936,949,958,960,960,961
483,501,515,509,516,504,517,529,538,547,555,559,564,577,578,571,564,580,593,603,622,638,649,650,647,640,646,646,641,641,645,645,641,647,659,672,680,690,700,710,717,719,721,719,719,711,701,703,717,719,720,729,737,724,712,700,692,683,680,680,682,682,682,679,674,666,660,657,654,651,649,648,647,647,648,650,652,654,658,659,659,659,659,659,659,658,658,657,656,655,655,654,653,653,653,653,655,657,660,662,665,667,668,669,670,670,670,670,670,669,668,667,665,663,662,661,660,659,659,658,657,657,656,656,656,656,656,656,656,657,657,657,657,657,657,657,658,659,660,660,660,660,661,663,667,671,676,680,687,694,700,700,700,699,692,686,683,679,676,672,669,665,662,660,659,659,659,659,660,660,660,659,659,660,660,660,660,660,660,660,662,662,661,660,658,657,657,656,656,655,655,654,653,653,653,653,653,654,655,656,657,658,659,659,660,660,661,661,661,662,662,662,662,662,662,662,662,662,661,661,661,661,661,661,662,662,662,663,663,663,664,664,665,665,665,666,666,667,667,668,669,670,670,671,673,674,675,677,678,678,679,680,682,684,687,690,692,694,696,698,699,700,701,703,706,710,714,720,725,731,740,753,760,771,778,780,787,800,819,834,843,864,899,947,996,1034,1051,1027,994,972,962,963,963,959,941,920,908,896,867,830,799,780,780,773,766,764,765,771,781,798,800,794,790,786,786,792,799,804,810,820,840,858,868,879,888,899,919,939,940,914,873,842,827,820,821,821,815,803,798,786,772,770,760,757,758,759,759,759,759,759,759,759,759,760,762,765,766,761,759,762,768,772,782,796,796,784,787,833,833,832,830,828,827,820,821,827,843,846,839,835,827,820,827,841,862,888,916,944,973,997,996,976,952,925,899,880,880,899,929,966,1006,1047,1077,1096,1109,1129,1157,1188,1222,1254,1275,1293,1322,1348,1363,1362,1341,1317,1296,1278,1260,1261,1272,1276,1280,1292,1310,1333,1357,1378,1385,1380,1372,1372,1369,1367,1368,1379,1386,1394,1402,1421,1437,1441,1447,1441,1429,1419,1408,1402,1417,1439,1461,1480,1496,1500,1500,1500,1509,1523,1537,1543,1546,1539,1527,1512,1484,1453,1413,1382,1365,1366,1382,1406,1431,1455,1462,1443,1431,1454,1481,1495,1482,1482,1499,1516,1536,1550,1556,1538,1536,1503,1454,1410,1370,1383,1409,1436,1459,1473,1497,1524,1551,1571,1588,1632,1639,1657,1677,1690,1691,1670,1624,1581,1558,1545,1542,1545,1544,1537,1527,1512,1503,1480,1444,1407,1376,1364,1364,1337,1292,1243,1199,1162,1130,1102,1076,1050,1031,1019,1014,1014,1021,1038,1056,1070,1092,1118,1138,1149,1159,1163,1181,1196,1200,1202,1209,1210,1193,1195,1209,1202,1183,1161,1141,1120,1096,1073,1046,1022,1005,1001,1020,1042,1059,1060,1059,1060,1059,1062,1066,1071,1079,1088,1093,1097,1100,1109,1119,1120,1131,1140,1148,1161,1182,1207,1234,1256,1269,1302,1319,1325,1325,1321,1316,1316,1315,1320,1329,1337,1344,1359,1347,1321,1301,1299,1320,1391,1454,1497,1532,1567,1606,1648,1695,1736,1757,1738,1698,1651,1607,1567,1530,1496,1449,1382,1332,1301,1298,1318,1338,1336,1339,1343,1339,1322,1303,1288,1278,1261,1251,1246,1246,1243,1240,1237,1234,1230,1226,1222,1221,1220,1228,1241,1257,1265,1267,1260,1243,1229,1218,1203,1190,1176,1156,1137,1115,1090,1070,1059,1049,1039,1037,1036,1025,1017,1002,989,973,949,931,923,924,929,938,949,961,972,979,979,979
498,517,523,520,522,522,537,540,541,557,570,580,586,597,600,597,592,605,609,620,636,644,658,660,659,653,660,661,659,660,660,659,658,659,666,673,683,698,703,711,719,719,723,720,719,719,719,719,724,726,729,739,742,737,720,710,700,691,688,687,686,684,682,679,674,668,662,659,655,652,650,648,647,646,647,649,652,654,659,660,660,660,659,659,659,658,657,656,655,655,654,652,652,651,651,652,653,655,657,660,662,664,665,666,667,667,667,667,666,665,664,663,662,661,660,659,659,658,658,657,657,656,656,656,656,656,656,657,658,658,658,658,658,658,657,658,659,659,659,659,659,660,661,664,668,673,679,684,693,703,717,719,718,710,701,692,687,683,679,676,672,668,664,662,661,660,660,661,662,662,662,663,664,665,666,667,669,669,669,668,667,666,665,661,660,658,658,658,657,656,655,655,654,653,653,653,653,654,655,656,657,657,658,659,659,660,660,661,661,662,662,662,663,663,662,662,662,662,662,662,662,662,662,662,662,663,663,663,663,664,664,665,665,665,666,666,667,667,668,668,669,670,670,672,673,674,676,677,679,679,680,680,682,684,687,689,692,694,696,697,699,699,701,703,706,710,715,720,724,731,740,751,760,774,779,780,787,799,816,828,839,857,887,928,973,1015,1039,1017,990,969,960,962,964,961,947,921,905,889,859,826,798,782,797,783,773,768,767,771,780,799,808,802,799,793,792,796,799,804,810,820,839,857,868,880,890,901,921,939,938,910,873,849,839,839,846,847,845,833,817,795,767,779,761,757,756,758,759,759,760,761,761,760,760,763,768,771,774,776,762,768,778,783,800,811,812,811,821,871,871,871,868,859,849,843,849,856,875,885,876,859,841,831,840,860,886,915,943,977,1016,1048,1056,1027,998,967,935,908,899,910,942,989,1040,1087,1120,1136,1142,1157,1180,1210,1235,1251,1253,1266,1289,1310,1323,1318,1299,1278,1260,1243,1227,1232,1239,1244,1248,1265,1286,1308,1328,1341,1338,1327,1319,1326,1329,1333,1351,1370,1387,1402,1418,1437,1452,1458,1458,1457,1445,1444,1435,1422,1430,1455,1478,1497,1506,1515,1519,1518,1521,1537,1543,1540,1538,1524,1512,1487,1456,1419,1388,1373,1369,1378,1396,1424,1456,1476,1473,1463,1448,1469,1496,1504,1499,1502,1517,1524,1541,1558,1562,1558,1554,1519,1470,1425,1396,1395,1418,1444,1472,1499,1528,1557,1584,1608,1661,1666,1669,1678,1693,1698,1687,1655,1605,1560,1529,1507,1497,1498,1497,1490,1477,1464,1454,1432,1398,1364,1337,1336,1331,1305,1263,1217,1179,1145,1118,1092,1063,1038,1020,1013,1014,1022,1038,1056,1069,1082,1101,1123,1143,1158,1170,1177,1190,1203,1217,1220,1221,1218,1204,1221,1236,1221,1196,1170,1149,1130,1106,1094,1068,1040,1020,1013,1028,1055,1076,1080,1082,1090,1090,1088,1080,1074,1075,1079,1080,1082,1100,1120,1136,1138,1141,1143,1147,1152,1165,1192,1222,1243,1261,1300,1319,1330,1335,1336,1323,1319,1315,1320,1328,1339,1346,1361,1353,1323,1303,1295,1308,1371,1437,1485,1521,1554,1589,1625,1667,1708,1734,1723,1693,1653,1611,1575,1546,1519,1483,1429,1370,1315,1281,1301,1332,1338,1343,1345,1339,1320,1299,1281,1275,1268,1259,1253,1251,1247,1243,1239,1237,1232,1226,1221,1219,1219,1220,1230,1243,1258,1264,1259,1240,1221,1213,1200,1182,1164,1144,1127,1108,1083,1061,1049,1037,1020,1012,1009,1001,995,982,972,954,937,925,928,939,954,961,969,979,990,998,1000,999
499,513,519,522,527,539,557,558,548,562,579,596,600,608,618,620,623,634,632,639,651,659,666,667,666,664,677,679,677,679,671,665,663,664,673,681,697,701,700,703,703,716,718,707,709,713,716,718,719,719,720,722,729,728,720,719,710,701,700,699,693,687,683,679,675,670,665,660,656,653,650,647,645,645,646,648,651,654,657,660,660,660,660,659,659,658,657,656,654,653,653,650,650,650,650,651,652,653,655,657,660,661,663,664,664,664,664,664,663,662,661,661,660,659,659,659,658,658,657,657,657,656,656,656,656,657,657,658,658,659,659,659,659,658,658,659,659,659,659,659,659,659,661,664,669,674,680,687,700,717,729,732,729,721,716,702,693,686,682,679,675,670,667,664,663,663,662,664,665,666,666,667,668,670,673,675,679,680,680,679,674,670,668,664,662,660,659,659,658,657,656,655,654,654,653,653,653,654,655,655,656,657,658,659,659,660,660,661,661,662,662,663,663,663,663,663,663,663,663,663,662,662,663,663,663,663,663,664,664,664,665,665,665,666,666,667,667,667,668,669,669,670,671,672,673,675,677,678,679,680,680,681,683,685,687,689,691,693,695,696,698,699,700,702,706,710,714,719,723,730,740,753,761,778,782,782,786,793,803,818,831,844,873,909,951,991,1019,995,975,959,953,959,963,961,948,922,904,885,851,821,801,797,796,797,782,773,772,774,780,800,818,819,811,800,796,799,800,803,810,819,831,843,861,878,887,900,921,939,934,910,882,860,851,859,876,886,887,870,844,816,789,773,760,756,756,757,759,761,762,764,765,766,767,771,779,781,781,784,779,779,789,804,826,830,829,838,879,895,901,907,905,892,878,878,890,894,906,921,910,883,858,843,856,876,903,932,963,1003,1048,1082,1084,1090,1042,1013,981,948,927,928,961,1010,1065,1117,1153,1164,1160,1169,1188,1213,1222,1228,1226,1239,1254,1268,1278,1275,1259,1239,1228,1217,1204,1214,1214,1214,1223,1241,1262,1281,1300,1304,1295,1285,1279,1295,1309,1324,1350,1378,1401,1418,1429,1441,1458,1461,1463,1475,1466,1463,1456,1441,1438,1458,1479,1492,1502,1519,1521,1520,1528,1539,1539,1531,1519,1498,1478,1450,1417,1388,1375,1373,1380,1395,1415,1445,1473,1485,1484,1477,1464,1479,1498,1504,1509,1519,1536,1539,1547,1557,1560,1569,1568,1533,1486,1442,1412,1398,1429,1459,1491,1526,1557,1586,1616,1671,1679,1680,1679,1681,1699,1700,1679,1638,1585,1539,1506,1480,1462,1452,1446,1435,1420,1408,1400,1381,1351,1318,1291,1289,1285,1263,1225,1184,1148,1115,1089,1065,1040,1021,1015,1014,1021,1038,1056,1070,1084,1102,1119,1139,1156,1164,1177,1183,1200,1218,1231,1240,1237,1223,1220,1238,1231,1226,1202,1178,1158,1140,1123,1118,1094,1060,1035,1020,1027,1049,1070,1085,1099,1116,1119,1115,1100,1082,1079,1083,1087,1098,1118,1140,1158,1162,1167,1161,1159,1154,1160,1178,1201,1228,1254,1276,1319,1332,1339,1344,1338,1328,1321,1325,1331,1337,1344,1359,1343,1321,1315,1299,1303,1342,1413,1469,1508,1539,1570,1602,1638,1677,1706,1709,1688,1652,1613,1583,1562,1540,1514,1472,1418,1357,1299,1289,1317,1327,1341,1345,1339,1320,1300,1288,1280,1278,1269,1260,1259,1253,1246,1240,1239,1235,1230,1221,1217,1212,1211,1219,1231,1242,1256,1258,1241,1227,1219,1209,1196,1178,1159,1140,1120,1094,1063,1042,1023,1003,992,984,978,968,958,948,938,929,926,937,950,968,988,998,1005,1013,1019,1020,1018
